ply
format ascii 1.0
element vertex 699
property float x
property float y
property float z
property uchar red
property uchar green
property uchar blue
end_header
-0.13004936277866364 0.005360500421375036 0.33969998359680176 80 79 90
-0.1291615068912506 0.005360500421375036 0.33969998359680176 80 79 90
-0.12827365100383759 0.005360500421375036 0.33969998359680176 77 76 87
-0.12738579511642456 0.005360500421375036 0.33969998359680176 77 75 86
-0.12709374725818634 0.005385748576372862 0.34129998087882996 76 74 85
-0.12620170414447784 0.005385748576372862 0.34129998087882996 76 74 85
-0.12549324333667755 0.0053936392068862915 0.3418000042438507 75 73 84
-0.12500087916851044 0.0054109967313706875 0.34289997816085815 74 72 86
-0.12428563088178635 0.005418887361884117 0.3434000015258789 73 71 85
-0.12378334254026413 0.0054362453520298 0.34450000524520874 74 72 86
-0.12306128442287445 0.005444135516881943 0.3449999988079071 74 72 86
-0.12237201631069183 0.005453602876514196 0.3455999791622162 71 69 83
-0.12185535579919815 0.005470961332321167 0.346699982881546 69 67 81
-0.12094919383525848 0.005470961332321167 0.346699982881546 71 69 83
-0.12021616101264954 0.005478851031512022 0.3471999764442444 73 71 85
-0.11968670040369034 0.005496209487318993 0.3482999801635742 72 70 84
-0.1187763586640358 0.005496209487318993 0.3482999801635742 69 67 81
-0.11786602437496185 0.005496209487318993 0.3482999801635742 64 65 78
-0.11715716123580933 0.005505677778273821 0.3488999903202057 62 63 76
-0.11624525487422943 0.005505677778273821 0.3488999903202057 61 65 77
-0.11533334851264954 0.005505677778273821 0.3488999903202057 61 65 77
-0.11442144960165024 0.005505677778273821 0.3488999903202057 63 67 79
-0.11350954324007034 0.005505677778273821 0.3488999903202057 65 69 81
-0.1124039962887764 0.005496209487318993 0.3482999801635742 66 72 83
-0.11149366199970245 0.005496209487318993 0.3482999801635742 63 69 80
-0.11023407429456711 0.005478851031512022 0.3471999764442444 66 72 83
-0.10916917771100998 0.005470961332321167 0.346699982881546 66 72 83
-0.10791952162981033 0.005453602876514196 0.3455999791622162 67 73 84
-0.1066756397485733 0.0054362453520298 0.34450000524520874 67 73 84
-0.10543748736381531 0.005418887361884117 0.3434000015258789 66 72 83
-0.10405287146568298 0.0053936392068862915 0.3418000042438507 67 73 84
-0.10267661511898041 0.005368390586227179 0.3401999771595001 68 72 84
-0.10148825496435165 0.005352610722184181 0.3391999900341034 69 73 85
-0.10045340657234192 0.005344720557332039 0.33869999647140503 68 72 84
-0.09939178079366684 0.005335252266377211 0.33809998631477356 68 72 84
-0.09850810468196869 0.005335252266377211 0.33809998631477356 69 73 85
-0.09748005121946335 0.005327362567186356 0.3375999927520752 69 73 85
-0.09659767895936966 0.005327362567186356 0.3375999927520752 69 73 85
-0.09571530669927597 0.005327362567186356 0.3375999927520752 69 73 85
-0.09469248354434967 0.005319472402334213 0.33709999918937683 71 72 85
-0.09381142258644104 0.005319472402334213 0.33709999918937683 69 70 83
-0.09293036162853241 0.005319472402334213 0.33709999918937683 67 68 81
-0.09204930067062378 0.005319472402334213 0.33709999918937683 66 67 80
-0.09103301167488098 0.005311582703143358 0.33660000562667847 65 66 79
-0.09015324711799622 0.005311582703143358 0.33660000562667847 66 67 80
-0.08927349001169205 0.005311582703143358 0.33660000562667847 70 71 84
-0.08839373290538788 0.005311582703143358 0.33660000562667847 70 71 84
-0.08738397806882858 0.005303692072629929 0.3360999822616577 67 71 85
-0.08650552481412888 0.005303692072629929 0.3360999822616577 65 69 83
-0.08549968898296356 0.0052958023734390736 0.33559998869895935 67 70 87
-0.08462254703044891 0.0052958023734390736 0.33559998869895935 72 75 92
-0.08374540507793427 0.0052958023734390736 0.33559998869895935 71 76 94
-0.08286826312541962 0.0052958023734390736 0.33559998869895935 69 74 92
-0.0818689614534378 0.005287912208586931 0.335099995136261 67 70 87
-0.08099312335252762 0.005287912208586931 0.335099995136261 67 70 87
-0.08011728525161743 0.005287912208586931 0.335099995136261 64 67 84
-0.07909956574440002 0.005278443917632103 0.3344999849796295 65 68 85
-0.07822529226541519 0.005278443917632103 0.3344999849796295 69 70 85
-0.07735102623701096 0.005278443917632103 0.3344999849796295 66 67 82
-0.07636244595050812 0.005270554218441248 0.33399999141693115 65 69 83
-0.07560248672962189 0.005278443917632103 0.3344999849796295 64 68 82
-0.07472822070121765 0.005278443917632103 0.3344999849796295 64 68 82
-0.07385395467281342 0.005278443917632103 0.3344999849796295 63 67 81
-0.07297968119382858 0.005278443917632103 0.3344999849796295 64 68 82
-0.07210540771484375 0.005278443917632103 0.3344999849796295 67 71 85
-0.07123114913702011 0.005278443917632103 0.3344999849796295 67 71 83
-0.07035687565803528 0.005278443917632103 0.3344999849796295 68 72 84
-0.06948260217905045 0.005278443917632103 0.3344999849796295 67 71 83
-0.06860833615064621 0.005278443917632103 0.3344999849796295 69 73 85
-0.06763282418251038 0.005270554218441248 0.33399999141693115 71 72 85
-0.06685979664325714 0.005278443917632103 0.3344999849796295 72 73 86
-0.0659855306148529 0.005278443917632103 0.3344999849796295 70 74 86
-0.06511126458644867 0.005278443917632103 0.3344999849796295 72 76 88
-0.06414097547531128 0.005270554218441248 0.33399999141693115 72 77 86
-0.0633627250790596 0.005278443917632103 0.3344999849796295 72 77 86
-0.062488455325365067 0.005278443917632103 0.3344999849796295 73 78 87
-0.06161418557167053 0.005278443917632103 0.3344999849796295 73 78 87
-0.060739915817976 0.005278443917632103 0.3344999849796295 75 80 89
-0.059973035007715225 0.005287912208586931 0.335099995136261 72 77 86
-0.05909719690680504 0.005287912208586931 0.335099995136261 75 80 89
-0.05822135508060455 0.005287912208586931 0.335099995136261 76 81 90
-0.05743108689785004 0.0052958023734390736 0.33559998869895935 76 81 90
-0.0566381961107254 0.005303692072629929 0.3360999822616577 77 82 91
-0.055842701345682144 0.005311582703143358 0.33660000562667847 78 83 92
-0.055044591426849365 0.005319472402334213 0.33709999918937683 80 85 94
-0.05416352301836014 0.005319472402334213 0.33709999918937683 79 86 94
-0.05344051867723465 0.005335252266377211 0.33809998631477356 79 86 94
-0.0527278333902359 0.005352610722184181 0.3391999900341034 79 90 101
-0.05199411138892174 0.005368390586227179 0.3401999771595001 81 92 103
-0.05134529992938042 0.0053936392068862915 0.3418000042438507 81 97 118
-0.05068812519311905 0.005418887361884117 0.3434000015258789 92 108 129
-0.0 0.0 0.0 89 116 138
-0.0 0.0 0.0 91 118 140
-0.0 0.0 0.0 90 123 148
-0.0 0.0 0.0 92 125 150
-0.0 0.0 0.0 91 127 153
-0.089629627764225 0.010721000842750072 0.6793999671936035 87 123 149
-0.08785391598939896 0.010721000842750072 0.6793999671936035 86 123 142
-0.08607819676399231 0.010721000842750072 0.6793999671936035 82 119 138
-0.08430247753858566 0.010721000842750072 0.6793999671936035 82 117 132
-0.08252675086259842 0.010721000842750072 0.6793999671936035 84 119 134
-0.08075103163719177 0.010721000842750072 0.6793999671936035 85 120 133
-0.07897531986236572 0.010721000842750072 0.6793999671936035 86 121 134
-0.07719959318637848 0.010721000842750072 0.6793999671936035 87 121 131
-0.07542387396097183 0.010721000842750072 0.6793999671936035 85 119 129
-0.07364815473556519 0.010721000842750072 0.6793999671936035 83 116 129
-0.07187243551015854 0.010721000842750072 0.6793999671936035 83 116 129
-0.07009671628475189 0.010721000842750072 0.6793999671936035 85 118 131
-0.06874335557222366 0.010787278413772583 0.6836000084877014 87 120 133
-0.06695665419101715 0.010787278413772583 0.6836000084877014 86 119 132
-0.06516996026039124 0.010787278413772583 0.6836000084877014 88 121 134
-0.06338325887918472 0.010787278413772583 0.6836000084877014 88 121 134
-0.0 0.0 0.0 78 113 128
-0.0 0.0 0.0 82 117 132
-0.0 0.0 0.0 79 114 129
-0.0 0.0 0.0 82 117 132
-0.0 0.0 0.0 81 116 131
-0.0 0.0 0.0 81 116 131
-0.21083924174308777 0.0054059261456131935 0.2938999831676483 81 116 131
-0.21121472120285034 0.005435355938971043 0.2954999804496765 86 115 127
-0.2110121250152588 0.0054500713013112545 0.2962999939918518 87 116 128
-0.21194060146808624 0.0054942164570093155 0.2987000048160553 64 76 92
-0.21200820803642273 0.005516288802027702 0.29989999532699585 61 73 89
-0.21354861557483673 0.0055769882164895535 0.30320000648498535 67 67 87
-0.2139490395784378 0.005608257371932268 0.30489999055862427 67 67 87
-0.21371141076087952 0.00562297273427248 0.30570000410079956 68 65 86
-0.2135392427444458 0.00563952699303627 0.30660000443458557 68 65 86
-0.21301542222499847 0.005646883975714445 0.30699998140335083 67 67 85
-0.2124895304441452 0.005654241889715195 0.3073999881744385 67 67 85
-0.21203042566776276 0.0056634387001395226 0.30789998173713684 67 67 85
-0.21150009334087372 0.005670796148478985 0.3082999885082245 65 65 83
-0.21096765995025635 0.005678153596818447 0.30869999527931213 67 67 85
-0.2107735425233841 0.0056947083212435246 0.30959999561309814 66 66 84
-0.2099643498659134 0.0056947083212435246 0.30959999561309814 69 69 87
-0.20976316928863525 0.005711262580007315 0.31049999594688416 70 70 88
-0.20922081172466278 0.005718620028346777 0.3109000027179718 70 73 90
-0.2090115249156952 0.005735174752771854 0.3118000030517578 69 72 89
-0.2084636688232422 0.005742531735450029 0.31219998002052307 70 73 90
-0.20824627578258514 0.0057590859942138195 0.3130999803543091 68 71 88
-0.20775920152664185 0.005768283270299435 0.31360000371932983 68 71 88
-0.20693956315517426 0.005768283270299435 0.31360000371932983 70 73 90
-0.20638281106948853 0.00577564025297761 0.3139999806880951 72 72 90
-0.2061513215303421 0.005792194977402687 0.3148999810218811 71 71 89
-0.2062411606311798 0.005817946512252092 0.31630000472068787 68 71 88
-0.2056742161512375 0.005825303494930267 0.3166999816894531 69 72 89
-0.2054286003112793 0.005841858219355345 0.31759998202323914 70 73 90
-0.20492061972618103 0.00585105549544096 0.3181000053882599 69 72 89
-0.20441000163555145 0.005860252305865288 0.31859999895095825 69 73 87
-0.20383287966251373 0.00586760975420475 0.3190000057220459 68 72 86
-0.2033172994852066 0.005876806564629078 0.31949999928474426 67 71 85
-0.20248223841190338 0.005876806564629078 0.31949999928474426 68 72 86
-0.20164717733860016 0.005876806564629078 0.31949999928474426 68 72 86
-0.20081210136413574 0.005876806564629078 0.31949999928474426 68 72 86
-0.19997704029083252 0.005876806564629078 0.31949999928474426 71 71 89
-0.1991419792175293 0.005876806564629078 0.31949999928474426 67 67 85
-0.19830693304538727 0.005876806564629078 0.31949999928474426 69 69 87
-0.19747185707092285 0.005876806564629078 0.31949999928474426 69 69 87
-0.19663679599761963 0.005876806564629078 0.31949999928474426 69 69 87
-0.1958017349243164 0.005876806564629078 0.31949999928474426 66 66 84
-0.194966658949852 0.005876806564629078 0.31949999928474426 67 67 85
-0.19443540275096893 0.005886003375053406 0.3199999928474426 66 66 84
-0.19359903037548065 0.005886003375053406 0.3199999928474426 65 65 83
-0.19276265799999237 0.005886003375053406 0.3199999928474426 65 65 83
-0.19216619431972504 0.005893360823392868 0.3203999996185303 68 65 84
-0.1916273534297943 0.005902557633817196 0.32089999318122864 68 65 84
-0.1907886266708374 0.005902557633817196 0.32089999318122864 69 66 85
-0.1902458667755127 0.005911754444241524 0.321399986743927 71 68 87
-0.18993622064590454 0.005928308703005314 0.322299987077713 69 69 87
-0.18938720226287842 0.005937505513429642 0.3227999806404114 70 70 88
-0.18906918168067932 0.005954059772193432 0.3236999809741974 71 72 87
-0.1890953630208969 0.005981650669127703 0.32519999146461487 71 72 87
-0.18847694993019104 0.005989008583128452 0.3255999982357025 73 74 87
-0.1882021725177765 0.006007401738315821 0.32659998536109924 72 73 86
-0.1876353621482849 0.0060165985487401485 0.3270999789237976 74 75 88
-0.1867804378271103 0.0060165985487401485 0.3270999789237976 74 75 88
-0.18592551350593567 0.0060165985487401485 0.3270999789237976 71 72 85
-0.18507057428359985 0.0060165985487401485 0.3270999789237976 73 74 87
-0.18421564996242523 0.0060165985487401485 0.3270999789237976 76 74 88
-0.1833607256412506 0.0060165985487401485 0.3270999789237976 75 73 87
-0.1825057864189148 0.0060165985487401485 0.3270999789237976 77 74 88
-0.18165086209774017 0.0060165985487401485 0.3270999789237976 78 75 89
-0.18134868144989014 0.0060349926352500916 0.3280999958515167 80 77 91
-0.1804911345243454 0.0060349926352500916 0.3280999958515167 76 73 87
-0.17990733683109283 0.006044189445674419 0.3285999894142151 74 71 85
-0.17981132864952087 0.006069940514862537 0.32999998331069946 74 71 85
-0.17921994626522064 0.006079137325286865 0.3304999768733978 75 73 87
-0.17916561663150787 0.006106728222221136 0.3319999873638153 76 74 88
-0.178834930062294 0.006125122308731079 0.3330000042915344 77 75 89
-0.17823179066181183 0.006134319119155407 0.3334999978542328 77 75 89
-0.17762604355812073 0.006143515929579735 0.33399999141693115 76 75 86
-0.1770176738500595 0.006152712740004063 0.3344999849796295 76 75 86
-0.17645935714244843 0.006163748912513256 0.335099995136261 76 75 86
-0.17558352649211884 0.006163748912513256 0.335099995136261 77 76 87
-0.17496837675571442 0.006172945722937584 0.33559998869895935 75 77 87
-0.17435060441493988 0.006182142533361912 0.3360999822616577 73 75 85
-0.17373023927211761 0.006191339809447527 0.33660000562667847 71 72 85
-0.17285047471523285 0.006191339809447527 0.33660000562667847 75 76 89
-0.1722261607646942 0.006200536619871855 0.33709999918937683 75 76 89
-0.17134509980678558 0.006200536619871855 0.33709999918937683 74 75 88
-0.17046403884887695 0.006200536619871855 0.33709999918937683 75 76 89
-0.16983449459075928 0.006209733430296183 0.3375999927520752 74 75 88
-0.16920234262943268 0.0062189302407205105 0.33809998631477356 75 77 87
-0.1686173677444458 0.006229966413229704 0.33869999647140503 78 80 90
-0.1677321344614029 0.006229966413229704 0.33869999647140503 78 80 90
-0.1670931875705719 0.006239163223654032 0.3391999900341034 80 82 92
-0.16645163297653198 0.00624836003407836 0.33969998359680176 84 83 94
-0.16580745577812195 0.0062575568445026875 0.3401999771595001 86 85 96
-0.1654515266418457 0.006277790293097496 0.34129998087882996 89 87 98
-0.16480058431625366 0.006286987569183111 0.3418000042438507 90 88 99
-0.16443471610546112 0.006307220086455345 0.34289997816085815 90 88 99
-0.16377697885036469 0.00631641736254096 0.3434000015258789 90 88 99
-0.16340118646621704 0.006336650811135769 0.34450000524520874 91 89 98
-0.16273662447929382 0.006345847155898809 0.3449999988079071 88 86 95
-0.16211634874343872 0.006356883328408003 0.3455999791622162 87 86 95
-0.1617261916399002 0.006377116311341524 0.346699982881546 87 86 95
-0.16105195879936218 0.006386313121765852 0.3471999764442444 86 85 94
-0.16065187752246857 0.0064065465703606606 0.3482999801635742 83 82 91
-0.160016730427742 0.006417582742869854 0.3488999903202057 82 80 94
-0.1596064418554306 0.0064378161914646626 0.3499999940395355 76 74 88
-0.1589183658361435 0.00644701300188899 0.3504999876022339 64 67 84
-0.15827275812625885 0.006458049174398184 0.35109999775886536 57 60 77
-0.1575791835784912 0.006467245984822512 0.3515999913215637 47 55 72
-0.15666022896766663 0.006467245984822512 0.3515999913215637 47 55 72
-0.15600703656673431 0.006478282622992992 0.3522000014781952 44 53 76
-0.15508650243282318 0.006478282622992992 0.3522000014781952 46 55 78
-0.15416596829891205 0.006478282622992992 0.3522000014781952 38 51 78
-0.15324543416500092 0.006478282622992992 0.3522000014781952 47 60 87
-0.15232490003108978 0.006478282622992992 0.3522000014781952 52 70 97
-0.15140438079833984 0.006478282622992992 0.3522000014781952 67 85 112
-0.1504838466644287 0.006478282622992992 0.3522000014781952 85 105 129
-0.14930851757526398 0.006467245984822512 0.3515999913215637 92 112 136
-0.1483895629644394 0.006467245984822512 0.3515999913215637 94 112 135
-0.1472608894109726 0.006458049174398184 0.35109999775886536 67 85 108
-0.14588473737239838 0.0064378161914646626 0.3499999940395355 54 63 84
-0.14472141861915588 0.006426779553294182 0.34939998388290405 58 67 88
-0.14335547387599945 0.0064065465703606606 0.3482999801635742 68 71 88
-0.14179077744483948 0.006377116311341524 0.346699982881546 67 70 87
-0.1408846229314804 0.006377116311341524 0.346699982881546 70 71 86
-0.13929210603237152 0.006345847155898809 0.3449999988079071 71 72 87
-0.13818982243537903 0.006336650811135769 0.34450000524520874 72 73 88
-0.13685104250907898 0.00631641736254096 0.3434000015258789 73 74 89
-0.13532006740570068 0.006286987569183111 0.3418000042438507 73 75 85
-0.13423007726669312 0.006277790293097496 0.34129998087882996 75 77 87
-0.13290828466415405 0.0062575568445026875 0.3401999771595001 79 78 89
-0.13201911747455597 0.0062575568445026875 0.3401999771595001 80 79 90
-0.13112995028495789 0.0062575568445026875 0.3401999771595001 82 81 92
-0.13004936277866364 0.00624836003407836 0.33969998359680176 81 80 91
-0.1291615068912506 0.00624836003407836 0.33969998359680176 79 78 89
-0.12827365100383759 0.00624836003407836 0.33969998359680176 79 78 89
-0.12738579511642456 0.00624836003407836 0.33969998359680176 78 76 87
-0.12668411433696747 0.0062575568445026875 0.3401999771595001 78 76 87
-0.12620170414447784 0.006277790293097496 0.34129998087882996 76 74 85
-0.12549324333667755 0.006286987569183111 0.3418000042438507 75 73 84
-0.124599888920784 0.006286987569183111 0.3418000042438507 75 74 85
-0.12410465627908707 0.006307220086455345 0.34289997816085815 75 74 85
-0.12338809669017792 0.00631641736254096 0.3434000015258789 74 73 84
-0.12288293987512589 0.006336650811135769 0.34450000524520874 73 72 83
-0.12215957045555115 0.006345847155898809 0.3449999988079071 73 72 83
-0.12125785648822784 0.006345847155898809 0.3449999988079071 69 68 79
-0.12056545168161392 0.006356883328408003 0.3455999791622162 72 71 82
-0.12004303932189941 0.006377116311341524 0.346699982881546 72 71 82
-0.119308702647686 0.006386313121765852 0.3471999764442444 71 70 81
-0.11840124428272247 0.006386313121765852 0.3471999764442444 68 67 78
-0.11786602437496185 0.0064065465703606606 0.3482999801635742 64 65 78
-0.11715716123580933 0.006417582742869854 0.3488999903202057 62 63 76
-0.11624525487422943 0.006417582742869854 0.3488999903202057 60 64 76
-0.11533334851264954 0.006417582742869854 0.3488999903202057 60 64 76
-0.11442144960165024 0.006417582742869854 0.3488999903202057 61 65 77
-0.11350954324007034 0.006417582742869854 0.3488999903202057 63 67 79
-0.1124039962887764 0.0064065465703606606 0.3482999801635742 64 70 83
-0.11149366199970245 0.0064065465703606606 0.3482999801635742 63 69 82
-0.11023407429456711 0.006386313121765852 0.3471999764442444 62 68 81
-0.10932661592960358 0.006386313121765852 0.3471999764442444 64 70 83
-0.10826301574707031 0.006377116311341524 0.346699982881546 64 70 83
-0.10683046281337738 0.006345847155898809 0.3449999988079071 67 73 86
-0.10577522963285446 0.006336650811135769 0.34450000524520874 66 72 85
-0.10438773781061172 0.006307220086455345 0.34289997816085815 66 72 85
-0.10300861299037933 0.006277790293097496 0.34129998087882996 68 74 85
-0.10163784772157669 0.00624836003407836 0.33969998359680176 68 74 85
-0.1006016954779625 0.006239163223654032 0.3391999900341034 68 72 84
-0.09956816583871841 0.006229966413229704 0.33869999647140503 67 71 83
-0.09868291765451431 0.006229966413229704 0.33869999647140503 67 71 83
-0.09762442111968994 0.0062189302407205105 0.33809998631477356 68 72 84
-0.09674074500799179 0.0062189302407205105 0.33809998631477356 67 71 83
-0.09585706144571304 0.0062189302407205105 0.33809998631477356 65 69 81
-0.09483293443918228 0.006209733430296183 0.3375999927520752 69 70 83
-0.09395056217908859 0.006209733430296183 0.3375999927520752 67 68 81
-0.0930681973695755 0.006209733430296183 0.3375999927520752 67 68 81
-0.09204930067062378 0.006200536619871855 0.33709999918937683 66 67 80
-0.09116823226213455 0.006200536619871855 0.33709999918937683 64 65 78
-0.09015324711799622 0.006191339809447527 0.33660000562667847 67 68 81
-0.08927349001169205 0.006191339809447527 0.33660000562667847 69 70 83
-0.08839373290538788 0.006191339809447527 0.33660000562667847 67 68 81
-0.0875139832496643 0.006191339809447527 0.33660000562667847 67 68 83
-0.08650552481412888 0.006182142533361912 0.3360999822616577 66 67 82
-0.08562707155942917 0.006182142533361912 0.3360999822616577 63 67 81
-0.08462254703044891 0.006172945722937584 0.33559998869895935 67 71 85
-0.08374540507793427 0.006172945722937584 0.33559998869895935 71 74 91
-0.08286826312541962 0.006172945722937584 0.33559998869895935 69 72 89
-0.08199111372232437 0.006172945722937584 0.33559998869895935 67 70 87
-0.08099312335252762 0.006163748912513256 0.335099995136261 67 70 87
-0.08011728525161743 0.006163748912513256 0.335099995136261 65 68 85
-0.07909956574440002 0.006152712740004063 0.3344999849796295 63 66 83
-0.07822529226541519 0.006152712740004063 0.3344999849796295 64 68 82
-0.07735102623701096 0.006152712740004063 0.3344999849796295 63 67 81
-0.07647676020860672 0.006152712740004063 0.3344999849796295 65 69 83
-0.07560248672962189 0.006152712740004063 0.3344999849796295 63 67 81
-0.07472822070121765 0.006152712740004063 0.3344999849796295 62 66 80
-0.07385395467281342 0.006152712740004063 0.3344999849796295 62 66 80
-0.07297968119382858 0.006152712740004063 0.3344999849796295 65 69 83
-0.07223474979400635 0.006163748912513256 0.335099995136261 67 71 85
-0.07135891914367676 0.006163748912513256 0.335099995136261 67 71 83
-0.07048308104276657 0.006163748912513256 0.335099995136261 69 73 85
-0.06960724294185638 0.006163748912513256 0.335099995136261 68 72 84
-0.0687314048409462 0.006163748912513256 0.335099995136261 69 73 85
-0.06773407012224197 0.006152712740004063 0.3344999849796295 70 71 84
-0.06685979664325714 0.006152712740004063 0.3344999849796295 71 72 85
-0.0659855306148529 0.006152712740004063 0.3344999849796295 69 73 85
-0.06511126458644867 0.006152712740004063 0.3344999849796295 70 74 86
-0.06423699110746384 0.006152712740004063 0.3344999849796295 71 76 85
-0.06347638368606567 0.006163748912513256 0.335099995136261 71 76 85
-0.062488455325365067 0.006152712740004063 0.3344999849796295 69 74 83
-0.0617247074842453 0.006163748912513256 0.335099995136261 70 75 84
-0.060848869383335114 0.006163748912513256 0.335099995136261 72 77 86
-0.059973035007715225 0.006163748912513256 0.335099995136261 71 76 85
-0.05909719690680504 0.006163748912513256 0.335099995136261 71 78 86
-0.058308228850364685 0.006172945722937584 0.33559998869895935 74 81 89
-0.05743108689785004 0.006172945722937584 0.33559998869895935 76 83 91
-0.05655394122004509 0.006172945722937584 0.33559998869895935 78 85 93
-0.055759746581315994 0.006182142533361912 0.3360999822616577 78 85 93
-0.054962947964668274 0.006191339809447527 0.33660000562667847 78 85 93
-0.05416352301836014 0.006200536619871855 0.33709999918937683 78 85 93
-0.05344051867723465 0.0062189302407205105 0.33809998631477356 78 85 93
-0.0527278333902359 0.006239163223654032 0.3391999900341034 79 85 96
-0.05191769823431969 0.00624836003407836 0.33969998359680176 79 85 96
-0.05134529992938042 0.006286987569183111 0.3418000042438507 73 85 101
-0.05061431974172592 0.006307220086455345 0.34289997816085815 79 91 107
-0.04995008558034897 0.006336650811135769 0.34450000524520874 80 102 124
-0.04912086948752403 0.006345847155898809 0.3449999988079071 89 111 133
-0.0 0.0 0.0 88 118 141
-0.0 0.0 0.0 92 122 145
-0.0 0.0 0.0 89 125 151
-0.0 0.0 0.0 89 125 151
-0.08839702606201172 0.012573975138366222 0.6836000084877014 80 117 138
-0.0866103246808052 0.012573975138366222 0.6836000084877014 82 119 140
-0.08482363075017929 0.012573975138366222 0.6836000084877014 86 121 136
-0.08303692936897278 0.012573975138366222 0.6836000084877014 85 120 135
-0.08125023543834686 0.012573975138366222 0.6836000084877014 85 120 133
-0.07946354150772095 0.012573975138366222 0.6836000084877014 86 121 134
-0.07767684012651443 0.012573975138366222 0.6836000084877014 87 121 131
-0.07542387396097183 0.01249672006815672 0.6793999671936035 86 120 130
-0.074103444814682 0.012573975138366222 0.6836000084877014 85 118 131
-0.07187243551015854 0.01249672006815672 0.6793999671936035 85 118 131
-0.07009671628475189 0.01249672006815672 0.6793999671936035 86 119 132
-0.06874335557222366 0.012573975138366222 0.6836000084877014 86 119 132
-0.06695665419101715 0.012573975138366222 0.6836000084877014 85 118 131
-0.06516996026039124 0.012573975138366222 0.6836000084877014 85 118 131
-0.06338325887918472 0.012573975138366222 0.6836000084877014 87 120 133
-0.0 0.0 0.0 84 117 132
-0.0 0.0 0.0 84 117 132
-0.0 0.0 0.0 83 116 131
-0.0 0.0 0.0 83 116 131
-0.0 0.0 0.0 83 116 131
-0.0 0.0 0.0 83 116 131
-0.2111262083053589 0.006182483863085508 0.29429998993873596 83 116 131
-0.21178655326366425 0.006224498618394136 0.2962999939918518 83 111 126
-0.21186670660972595 0.006249707192182541 0.29749998450279236 86 114 129
-0.2127920538187027 0.0063001252710819244 0.29989999532699585 70 85 98
-0.21285651624202728 0.006325333844870329 0.3010999858379364 57 72 85
-0.2141120582818985 0.006386255845427513 0.30399999022483826 65 68 85
-0.2142297327518463 0.00641356548294425 0.3052999973297119 62 65 82
-0.2140609622001648 0.006432472262531519 0.3061999976634979 64 64 84
-0.21381781995296478 0.006449277512729168 0.30699998140335083 64 64 84
-0.21363990008831024 0.006468184292316437 0.30789998173713684 65 65 85
-0.21311165392398834 0.006476587615907192 0.3082999885082245 65 65 85
-0.21292565762996674 0.006495494395494461 0.3091999888420105 64 64 84
-0.21300934255123138 0.006522804033011198 0.31049999594688416 65 65 85
-0.21247117221355438 0.006531206890940666 0.3109000027179718 65 65 83
-0.2122712880373001 0.006550113670527935 0.3118000030517578 66 66 84
-0.21172760426998138 0.006558516062796116 0.31219998002052307 67 67 85
-0.21151962876319885 0.006577422842383385 0.3130999803543091 67 67 85
-0.2110377848148346 0.006587927229702473 0.31360000371932983 67 70 87
-0.2104862630367279 0.0065963296219706535 0.3139999806880951 65 68 85
-0.21026653051376343 0.006615236401557922 0.3148999810218811 64 67 84
-0.20944347977638245 0.006615236401557922 0.3148999810218811 63 66 83
-0.2089516967535019 0.006625740323215723 0.31540000438690186 64 67 84
-0.20872125029563904 0.006644647102802992 0.31630000472068787 67 70 87
-0.20815743505954742 0.006653049495071173 0.3166999816894531 70 70 88
-0.20732970535755157 0.006653049495071173 0.3166999816894531 70 70 88
-0.20708879828453064 0.0066719562746584415 0.31759998202323914 69 69 87
-0.2065834254026413 0.0066824606619775295 0.3181000053882599 69 69 87
-0.20607542991638184 0.006692964117974043 0.31859999895095825 68 71 88
-0.20550040900707245 0.006701367441564798 0.3190000057220459 67 70 87
-0.20498743653297424 0.006711870897561312 0.31949999928474426 68 71 88
-0.20415236055850983 0.006711870897561312 0.31949999928474426 68 71 88
-0.20363548398017883 0.006722374353557825 0.3199999928474426 68 72 86
-0.20248223841190338 0.006711870897561312 0.31949999928474426 67 71 85
-0.20196273922920227 0.006722374353557825 0.3199999928474426 67 71 85
-0.20081210136413574 0.006711870897561312 0.31949999928474426 67 71 85
-0.19997704029083252 0.006711870897561312 0.31949999928474426 67 70 87
-0.1991419792175293 0.006711870897561312 0.31949999928474426 65 68 85
-0.19830693304538727 0.006711870897561312 0.31949999928474426 68 71 88
-0.19747185707092285 0.006711870897561312 0.31949999928474426 65 68 85
-0.19663679599761963 0.006711870897561312 0.31949999928474426 65 68 85
-0.1958017349243164 0.006711870897561312 0.31949999928474426 64 67 84
-0.194966658949852 0.006711870897561312 0.31949999928474426 65 68 85
-0.19443540275096893 0.006722374353557825 0.3199999928474426 64 67 84
-0.19359903037548065 0.006722374353557825 0.3199999928474426 65 65 83
-0.19276265799999237 0.006722374353557825 0.3199999928474426 63 63 81
-0.19216619431972504 0.0067307776771485806 0.3203999996185303 64 64 82
-0.1916273534297943 0.006741281133145094 0.32089999318122864 64 64 82
-0.19108588993549347 0.006751784589141607 0.321399986743927 65 65 83
-0.19048264622688293 0.006760187912732363 0.32179999351501465 67 67 85
-0.19023087620735168 0.0067811948247253895 0.3227999806404114 69 69 87
-0.1899152249097824 0.006800101604312658 0.3236999809741974 69 69 87
-0.18994532525539398 0.006831612903624773 0.32519999146461487 69 70 85
-0.189909428358078 0.006861023139208555 0.32659998536109924 69 70 85
-0.18934522569179535 0.006871526595205069 0.3270999789237976 69 70 85
-0.18935467302799225 0.006903038360178471 0.3285999894142151 69 70 85
-0.1887252777814865 0.006911441218107939 0.32899999618530273 73 71 85
-0.18786539137363434 0.006911441218107939 0.32899999618530273 74 72 86
-0.18700549006462097 0.006911441218107939 0.32899999618530273 73 71 85
-0.18591926991939545 0.006903038360178471 0.3285999894142151 74 72 86
-0.18506042659282684 0.006903038360178471 0.3285999894142151 75 73 87
-0.18442580103874207 0.006911441218107939 0.32899999618530273 75 73 87
-0.1835659146308899 0.006911441218107939 0.32899999618530273 75 73 87
-0.18270601332187653 0.006911441218107939 0.32899999618530273 76 74 88
-0.18184614181518555 0.006911441218107939 0.32899999618530273 76 74 88
-0.18153634667396545 0.006932448595762253 0.32999998331069946 74 72 86
-0.18094758689403534 0.006942952051758766 0.3304999768733978 74 72 86
-0.18062865734100342 0.0069639598950743675 0.33149999380111694 74 72 86
-0.18030448257923126 0.006984966807067394 0.33249998092651367 75 73 87
-0.17970529198646545 0.006995471194386482 0.3330000042915344 76 74 88
-0.17937196791172028 0.007016478106379509 0.33399999141693115 74 72 86
-0.17876622080802917 0.00702698202803731 0.3344999849796295 74 72 86
-0.17789195477962494 0.00702698202803731 0.3344999849796295 73 72 83
-0.1773352026939392 0.0070395865477621555 0.335099995136261 74 73 84
-0.17645935714244843 0.0070395865477621555 0.335099995136261 74 73 84
-0.17584550380706787 0.007050090003758669 0.33559998869895935 74 73 84
-0.17496837675571442 0.007050090003758669 0.33559998869895935 74 76 86
-0.17435060441493988 0.007060593459755182 0.3360999822616577 70 72 82
-0.17373023927211761 0.00707109784707427 0.33660000562667847 70 72 82
-0.17285047471523285 0.00707109784707427 0.33660000562667847 73 75 85
-0.17197071015834808 0.00707109784707427 0.33660000562667847 74 76 86
-0.17134509980678558 0.007081601303070784 0.33709999918937683 74 76 86
-0.17046403884887695 0.007081601303070784 0.33709999918937683 73 75 85
-0.16958296298980713 0.007081601303070784 0.33709999918937683 73 75 85
-0.1689521223306656 0.007092105224728584 0.3375999927520752 74 76 86
-0.1680697500705719 0.007092105224728584 0.3375999927520752 79 81 91
-0.16743499040603638 0.007102608680725098 0.33809998631477356 78 80 90
-0.1668468862771988 0.0071152132004499435 0.33869999647140503 79 81 91
-0.16620662808418274 0.007125716656446457 0.3391999900341034 81 83 93
-0.16556376218795776 0.007136220578104258 0.33969998359680176 82 84 94
-0.16491828858852386 0.007146724034100771 0.3401999771595001 87 86 97
-0.16402912139892578 0.007146724034100771 0.3401999771595001 88 87 98
-0.1636674404144287 0.00716983200982213 0.34129998087882996 91 90 101
-0.16301389038562775 0.007180336397141218 0.3418000042438507 90 89 100
-0.16264227032661438 0.00720344390720129 0.34289997816085815 90 89 98
-0.16198191046714783 0.007213948294520378 0.3434000015258789 88 87 96
-0.16183491051197052 0.007247560191899538 0.3449999988079071 86 85 94
-0.16121307015419006 0.007260164245963097 0.3455999791622162 86 85 94
-0.1603097915649414 0.007260164245963097 0.3455999791622162 87 86 95
-0.16014450788497925 0.007293775677680969 0.3471999764442444 86 85 94
-0.15974155068397522 0.007316884119063616 0.3482999801635742 83 82 91
-0.1591048240661621 0.007329488638788462 0.3488999903202057 82 81 90
-0.1586916595697403 0.007352597080171108 0.3499999940395355 77 75 89
-0.15800227224826813 0.007363100536167622 0.3504999876022339 71 69 83
-0.15735509991645813 0.007375705521553755 0.35109999775886536 60 64 78
-0.15666022896766663 0.007386208977550268 0.3515999913215637 60 64 78
-0.15574125945568085 0.007386208977550268 0.3515999913215637 54 59 75
-0.15508650243282318 0.007398813497275114 0.3522000014781952 53 58 74
-0.15416596829891205 0.007398813497275114 0.3522000014781952 48 55 77
-0.15324543416500092 0.007398813497275114 0.3522000014781952 46 53 75
-0.15232490003108978 0.007398813497275114 0.3522000014781952 42 51 74
-0.15114644169807434 0.007386208977550268 0.3515999913215637 44 53 76
-0.15022748708724976 0.007386208977550268 0.3515999913215637 37 52 76
-0.14909620583057404 0.007375705521553755 0.35109999775886536 42 57 81
-0.14792531728744507 0.007363100536167622 0.3504999876022339 52 67 91
-0.14679951965808868 0.007352597080171108 0.3499999940395355 58 73 97
-0.14542622864246368 0.007329488638788462 0.3488999903202057 59 67 86
-0.1442658007144928 0.007316884119063616 0.3482999801635742 62 70 89
-0.14269693195819855 0.007283272221684456 0.346699982881546 69 73 87
-0.14134091138839722 0.007260164245963097 0.3455999791622162 69 73 87
-0.14019381999969482 0.007247560191899538 0.3449999988079071 71 72 87
-0.13909024000167847 0.007237056270241737 0.34450000524520874 73 74 89
-0.137748584151268 0.007213948294520378 0.3434000015258789 72 73 88
-0.13665178418159485 0.00720344390720129 0.34289997816085815 74 75 90
-0.13512210547924042 0.00716983200982213 0.34129998087882996 77 78 91
-0.13423007726669312 0.00716983200982213 0.34129998087882996 78 79 92
-0.13290828466415405 0.007146724034100771 0.3401999771595001 79 78 89
-0.13201911747455597 0.007146724034100771 0.3401999771595001 79 78 89
-0.13112995028495789 0.007146724034100771 0.3401999771595001 81 80 91
-0.13004936277866364 0.007136220578104258 0.33969998359680176 80 79 90
-0.1291615068912506 0.007136220578104258 0.33969998359680176 79 78 89
-0.12827365100383759 0.007136220578104258 0.33969998359680176 79 78 89
-0.12738579511642456 0.007136220578104258 0.33969998359680176 78 76 87
-0.12668411433696747 0.007146724034100771 0.3401999771595001 77 75 86
-0.12620170414447784 0.00716983200982213 0.34129998087882996 75 73 84
-0.12549324333667755 0.007180336397141218 0.3418000042438507 74 72 83
-0.124599888920784 0.007180336397141218 0.3418000042438507 74 72 83
-0.12410465627908707 0.00720344390720129 0.34289997816085815 74 72 83
-0.1232084333896637 0.00720344390720129 0.34289997816085815 76 74 85
-0.12249056994915009 0.007213948294520378 0.3434000015258789 74 72 83
-0.12198252975940704 0.007237056270241737 0.34450000524520874 73 72 83
-0.12125785648822784 0.007247560191899538 0.3449999988079071 71 70 81
-0.12056545168161392 0.007260164245963097 0.3455999791622162 71 70 81
-0.11966216564178467 0.007260164245963097 0.3455999791622162 71 70 81
-0.11913689225912094 0.007283272221684456 0.346699982881546 69 68 79
-0.11840124428272247 0.007293775677680969 0.3471999764442444 68 67 78
-0.11786602437496185 0.007316884119063616 0.3482999801635742 65 67 77
-0.11695568263530731 0.007316884119063616 0.3482999801635742 63 65 75
-0.11624525487422943 0.007329488638788462 0.3488999903202057 58 63 72
-0.11533334851264954 0.007329488638788462 0.3488999903202057 60 65 74
-0.11442144960165024 0.007329488638788462 0.3488999903202057 61 65 77
-0.11350954324007034 0.007329488638788462 0.3488999903202057 61 65 77
-0.11259763687849045 0.007329488638788462 0.3488999903202057 63 67 81
-0.11149366199970245 0.007316884119063616 0.3482999801635742 62 66 80
-0.11058332026004791 0.007316884119063616 0.3482999801635742 63 67 81
-0.10932661592960358 0.007293775677680969 0.3471999764442444 63 67 81
-0.10826301574707031 0.007283272221684456 0.346699982881546 67 71 85
-0.10701625049114227 0.007260164245963097 0.3455999791622162 68 72 86
-0.10592874884605408 0.007247560191899538 0.3449999988079071 68 72 86
-0.10453995317220688 0.007213948294520378 0.3434000015258789 68 72 86
-0.10315952450037003 0.007180336397141218 0.3418000042438507 68 72 86
-0.10211656987667084 0.00716983200982213 0.34129998087882996 67 71 85
-0.10074999183416367 0.007136220578104258 0.33969998359680176 67 71 83
-0.09971515089273453 0.007125716656446457 0.3391999900341034 67 71 83
-0.09868291765451431 0.0071152132004499435 0.33869999647140503 67 71 83
-0.09779767692089081 0.0071152132004499435 0.33869999647140503 67 71 83
-0.0969124287366867 0.0071152132004499435 0.33869999647140503 65 69 81
-0.09585706144571304 0.007102608680725098 0.33809998631477356 65 69 81
-0.09497338533401489 0.007102608680725098 0.33809998631477356 66 67 80
-0.09408970177173615 0.007102608680725098 0.33809998631477356 66 67 80
-0.0930681973695755 0.007092105224728584 0.3375999927520752 67 68 81
-0.09218582510948181 0.007092105224728584 0.3375999927520752 65 66 79
-0.09116823226213455 0.007081601303070784 0.33709999918937683 65 66 79
-0.09028716385364532 0.007081601303070784 0.33709999918937683 69 70 83
-0.08927349001169205 0.00707109784707427 0.33660000562667847 69 70 83
-0.08839373290538788 0.00707109784707427 0.33660000562667847 66 67 80
-0.0875139832496643 0.00707109784707427 0.33660000562667847 66 67 80
-0.08663422614336014 0.00707109784707427 0.33660000562667847 65 66 79
-0.08562707155942917 0.007060593459755182 0.3360999822616577 65 66 79
-0.08474861830472946 0.007060593459755182 0.3360999822616577 67 68 81
-0.08374540507793427 0.007050090003758669 0.33559998869895935 69 73 87
-0.08286826312541962 0.007050090003758669 0.33559998869895935 68 72 86
-0.08199111372232437 0.007050090003758669 0.33559998869895935 67 71 85
-0.08111397176980972 0.007050090003758669 0.33559998869895935 67 71 85
-0.08011728525161743 0.0070395865477621555 0.335099995136261 65 69 83
-0.07924144715070724 0.0070395865477621555 0.335099995136261 64 68 82
-0.07836560904979706 0.0070395865477621555 0.335099995136261 65 69 83
-0.07748977839946747 0.0070395865477621555 0.335099995136261 64 68 82
-0.07661394029855728 0.0070395865477621555 0.335099995136261 63 67 81
-0.0757381021976471 0.0070395865477621555 0.335099995136261 63 67 81
-0.07486226409673691 0.0070395865477621555 0.335099995136261 63 67 81
-0.07398642599582672 0.0070395865477621555 0.335099995136261 63 67 81
-0.0732196718454361 0.007050090003758669 0.33559998869895935 65 69 83
-0.07234252989292145 0.007050090003758669 0.33559998869895935 65 69 83
-0.0714653879404068 0.007050090003758669 0.33559998869895935 65 69 81
-0.07058824598789215 0.007050090003758669 0.33559998869895935 69 73 85
-0.0697110965847969 0.007050090003758669 0.33559998869895935 68 72 84
-0.06883395463228226 0.007050090003758669 0.33559998869895935 68 72 84
-0.06785556674003601 0.0070395865477621555 0.335099995136261 70 71 84
-0.06697972863912582 0.0070395865477621555 0.335099995136261 70 71 84
-0.06610389798879623 0.0070395865477621555 0.335099995136261 69 70 83
-0.06522805243730545 0.0070395865477621555 0.335099995136261 70 71 84
-0.06435221433639526 0.0070395865477621555 0.335099995136261 69 74 83
-0.06347638368606567 0.0070395865477621555 0.335099995136261 70 75 84
-0.06260054558515549 0.0070395865477621555 0.335099995136261 70 75 84
-0.0617247074842453 0.0070395865477621555 0.335099995136261 70 75 84
-0.060848869383335114 0.0070395865477621555 0.335099995136261 72 77 86
-0.059973035007715225 0.0070395865477621555 0.335099995136261 73 78 87
-0.05909719690680504 0.0070395865477621555 0.335099995136261 74 81 89
-0.058308228850364685 0.007050090003758669 0.33559998869895935 76 83 91
-0.05743108689785004 0.007050090003758669 0.33559998869895935 76 83 91
-0.05655394122004509 0.007050090003758669 0.33559998869895935 77 84 92
-0.055759746581315994 0.007060593459755182 0.3360999822616577 78 83 92
-0.054962947964668274 0.00707109784707427 0.33660000562667847 77 82 91
-0.05416352301836014 0.007081601303070784 0.33709999918937683 77 82 91
-0.05336148664355278 0.007092105224728584 0.3375999927520752 78 83 92
-0.0525568425655365 0.007102608680725098 0.33809998631477356 78 84 95
-0.05191769823431969 0.007136220578104258 0.33969998359680176 78 84 95
-0.05127018690109253 0.00716983200982213 0.34129998087882996 77 86 98
-0.05061431974172592 0.00720344390720129 0.34289997816085815 82 91 103
-0.04979059472680092 0.007213948294520378 0.3434000015258789 81 97 116
-0.04912086948752403 0.007247560191899538 0.3449999988079071 88 104 123
-0.04845675453543663 0.007283272221684456 0.346699982881546 87 112 137
-0.0 0.0 0.0 89 114 139
-0.0 0.0 0.0 88 121 146
-0.0 0.0 0.0 99 132 157
-0.08868150413036346 0.01440688781440258 0.6857999563217163 93 129 155
-0.08688905835151672 0.01440688781440258 0.6857999563217163 84 120 146
-0.08482363075017929 0.014360672794282436 0.6836000084877014 84 121 140
-0.08303692936897278 0.014360672794282436 0.6836000084877014 84 121 140
-0.08125023543834686 0.014360672794282436 0.6836000084877014 86 121 134
-0.07946354150772095 0.014360672794282436 0.6836000084877014 88 123 136
-0.07767684012651443 0.014360672794282436 0.6836000084877014 88 122 132
-0.07589014619588852 0.014360672794282436 0.6836000084877014 88 122 132
-0.074103444814682 0.014360672794282436 0.6836000084877014 87 121 131
-0.07231675088405609 0.014360672794282436 0.6836000084877014 85 119 129
-0.07053005695343018 0.014360672794282436 0.6836000084877014 84 118 128
-0.06874335557222366 0.014360672794282436 0.6836000084877014 85 119 129
-0.06695665419101715 0.014360672794282436 0.6836000084877014 85 119 129
-0.06516996026039124 0.014360672794282436 0.6836000084877014 87 121 131
-0.06338325887918472 0.014360672794282436 0.6836000084877014 86 120 130
-0.0 0.0 0.0 81 114 129
-0.0 0.0 0.0 83 116 131
-0.0 0.0 0.0 84 117 132
-0.0 0.0 0.0 85 118 133
-0.0 0.0 0.0 85 118 133
-0.0 0.0 0.0 83 116 131
-0.21313486993312836 0.007017822004854679 0.2970999777317047 83 116 131
-0.2140738070011139 0.007074512541294098 0.2994999885559082 83 111 126
-0.21443046629428864 0.007112306542694569 0.3010999858379364 82 110 125
-0.21456590294837952 0.00714301411062479 0.30239999294281006 83 103 116
-0.2146238386631012 0.007171358913183212 0.3035999834537506 61 81 94
-0.21474595367908478 0.007202066481113434 0.30489999055862427 60 68 83
-0.21486125886440277 0.007232774049043655 0.3061999976634979 59 67 82
-0.2146202176809311 0.0072516705840826035 0.30699998140335083 63 66 83
-0.21472324430942535 0.007282378152012825 0.3082999885082245 62 65 82
-0.21419499814510345 0.007291826885193586 0.30869999527931213 64 64 82
-0.21401028335094452 0.007313085719943047 0.30959999561309814 65 65 83
-0.214096337556839 0.007343793287873268 0.3109000027179718 65 65 83
-0.21417556703090668 0.007374500390142202 0.31219998002052307 64 64 82
-0.21431636810302734 0.007407570257782936 0.31360000371932983 64 64 82
-0.21376901865005493 0.007417018059641123 0.3139999806880951 65 65 83
-0.21355868875980377 0.00743827736005187 0.3148999810218811 65 65 83
-0.21307344734668732 0.007450088392943144 0.31540000438690186 65 65 83
-0.2128547579050064 0.007471347227692604 0.31630000472068787 65 68 85
-0.21229617297649384 0.007480795029550791 0.3166999816894531 64 67 84
-0.21180230379104614 0.007492606062442064 0.3172000050544739 62 65 82
-0.2112392783164978 0.007502054329961538 0.31759998202323914 62 65 82
-0.21040917932987213 0.007502054329961538 0.31759998202323914 64 67 84
-0.20957908034324646 0.007502054329961538 0.31759998202323914 65 68 85
-0.2090776264667511 0.007513865362852812 0.3181000053882599 64 67 84
-0.20857356488704681 0.007525675464421511 0.31859999895095825 64 67 84
-0.20800167322158813 0.007535124197602272 0.3190000057220459 66 66 84
-0.20716792345046997 0.007535124197602272 0.3190000057220459 66 66 84
-0.2066575586795807 0.007546934764832258 0.31949999928474426 65 65 83
-0.20582249760627747 0.007546934764832258 0.31949999928474426 66 66 84
-0.20498743653297424 0.007546934764832258 0.31949999928474426 67 67 85
-0.20447185635566711 0.007558744866400957 0.3199999928474426 65 65 83
-0.20363548398017883 0.007558744866400957 0.3199999928474426 67 70 87
-0.20279911160469055 0.007558744866400957 0.3199999928474426 63 66 83
-0.20196273922920227 0.007558744866400957 0.3199999928474426 64 67 84
-0.201126366853714 0.007558744866400957 0.3199999928474426 65 68 85
-0.19997704029083252 0.007546934764832258 0.31949999928474426 67 70 87
-0.1991419792175293 0.007546934764832258 0.31949999928474426 65 68 85
-0.19830693304538727 0.007546934764832258 0.31949999928474426 65 68 85
-0.19747185707092285 0.007546934764832258 0.31949999928474426 64 67 84
-0.19663679599761963 0.007546934764832258 0.31949999928474426 64 69 85
-0.1958017349243164 0.007546934764832258 0.31949999928474426 63 68 84
-0.194966658949852 0.007546934764832258 0.31949999928474426 64 68 82
-0.19443540275096893 0.007558744866400957 0.3199999928474426 63 67 81
-0.19359903037548065 0.007558744866400957 0.3199999928474426 63 67 81
-0.19276265799999237 0.007558744866400957 0.3199999928474426 63 67 81
-0.19216619431972504 0.0075681935995817184 0.3203999996185303 66 67 82
-0.1916273534297943 0.007580004166811705 0.32089999318122864 66 67 82
-0.19108588993549347 0.0075918142683804035 0.321399986743927 66 67 82
-0.19048264622688293 0.007601263001561165 0.32179999351501465 66 67 82
-0.19046659767627716 0.007634332403540611 0.323199987411499 66 67 82
-0.19020859897136688 0.007657954003661871 0.32420000433921814 67 68 83
-0.19017896056175232 0.00769102293998003 0.3255999982357025 69 70 85
-0.1907816380262375 0.007750075776129961 0.3280999958515167 66 67 82
-0.19021351635456085 0.007761886343359947 0.3285999894142151 65 66 79
-0.19016140699386597 0.007794955745339394 0.32999998331069946 66 67 80
-0.18958571553230286 0.0078067658469080925 0.3304999768733978 71 69 83
-0.1887218952178955 0.0078067658469080925 0.3304999768733978 71 69 83
-0.18785808980464935 0.0078067658469080925 0.3304999768733978 71 69 83
-0.186994269490242 0.0078067658469080925 0.3304999768733978 73 71 85
-0.18613044917583466 0.0078067658469080925 0.3304999768733978 74 72 86
-0.1852666437625885 0.0078067658469080925 0.3304999768733978 74 72 86
-0.18440282344818115 0.0078067658469080925 0.3304999768733978 72 70 84
-0.1840943545103073 0.007830386981368065 0.33149999380111694 74 72 86
-0.18322794139385223 0.007830386981368065 0.33149999380111694 72 70 84
-0.1826365739107132 0.007842198014259338 0.3319999873638153 73 71 85
-0.18204256892204285 0.007854008115828037 0.33249998092651367 71 69 83
-0.18144598603248596 0.00786581914871931 0.3330000042915344 71 69 83
-0.18111789226531982 0.007889440283179283 0.33399999141693115 73 71 85
-0.18051475286483765 0.007901250384747982 0.3344999849796295 73 71 85
-0.1796404868364334 0.007901250384747982 0.3344999849796295 69 67 81
-0.17908687889575958 0.00791542325168848 0.335099995136261 71 69 83
-0.17821104824543 0.00791542325168848 0.335099995136261 69 68 79
-0.1773352026939392 0.00791542325168848 0.335099995136261 71 70 81
-0.1767226606607437 0.00792723335325718 0.33559998869895935 72 71 82
-0.17584550380706787 0.00792723335325718 0.33559998869895935 71 70 81
-0.1752290576696396 0.007939044386148453 0.3360999822616577 70 72 82
-0.1746099889278412 0.007950855419039726 0.33660000562667847 66 68 78
-0.17373023927211761 0.007950855419039726 0.33660000562667847 67 69 79
-0.17285047471523285 0.007950855419039726 0.33660000562667847 70 72 82
-0.17197071015834808 0.007950855419039726 0.33660000562667847 71 73 83
-0.1710909605026245 0.007950855419039726 0.33660000562667847 69 71 81
-0.17046403884887695 0.007962665520608425 0.33709999918937683 70 72 82
-0.16958296298980713 0.007962665520608425 0.33709999918937683 70 72 82
-0.1687019020318985 0.007962665520608425 0.33709999918937683 73 75 85
-0.16782084107398987 0.007962665520608425 0.33709999918937683 75 77 87
-0.1671873927116394 0.007974475622177124 0.3375999927520752 75 77 87
-0.16655132174491882 0.007986286655068398 0.33809998631477356 72 74 84
-0.1659616380929947 0.008000459522008896 0.33869999647140503 78 80 90
-0.16532008349895477 0.008012269623577595 0.3391999900341034 80 82 92
