ply
format ascii 1.0
element vertex 680
property float x
property float y
property float z
property uchar red
property uchar green
property uchar blue
end_header
-3.602997458074242e-05 0.032040175050497055 0.1891999989748001 13 97 182
0.0002597081765998155 0.03205711022019386 0.18930000066757202 15 83 160
0.0005557587719522417 0.03207404166460037 0.18940000236034393 0 67 144
0.0008530211634933949 0.032124847173690796 0.18969999253749847 8 61 132
0.0011500092223286629 0.032141778618097305 0.18979999423027039 1 54 124
0.0014480719109997153 0.03217564895749092 0.1899999976158142 2 53 114
0.0017467596335336566 0.03220951929688454 0.19020000100135803 1 52 113
0.01035904698073864 0.03219258412718773 0.19009999930858612 0 42 109
0.010656054131686687 0.03219258412718773 0.19009999930858612 1 43 110
0.010958822444081306 0.03220951929688454 0.19020000100135803 1 46 112
0.01125598605722189 0.03220951929688454 0.19020000100135803 1 46 112
0.011553149670362473 0.03220951929688454 0.19020000100135803 0 47 114
0.011856541968882084 0.032226450741291046 0.19029998779296875 1 48 115
0.012147475965321064 0.03220951929688454 0.19020000100135803 0 48 114
0.012451181188225746 0.032226450741291046 0.19029998779296875 0 49 115
0.012755201198160648 0.032243385910987854 0.19039998948574066 0 49 115
0.013052676804363728 0.032243385910987854 0.19039998948574066 0 49 115
0.013357163406908512 0.03226032108068466 0.19049999117851257 0 49 115
0.013647628016769886 0.032243385910987854 0.19039998948574066 0 49 115
0.013952427543699741 0.03226032108068466 0.19049999117851257 0 49 115
0.014250059612095356 0.03226032108068466 0.19049999117851257 1 51 117
0.014547690749168396 0.03226032108068466 0.19049999117851257 0 49 115
0.01484532468020916 0.03226032108068466 0.19049999117851257 0 49 115
0.0151429558172822 0.03226032108068466 0.19049999117851257 1 50 121
0.015464904718101025 0.032311126589775085 0.1907999962568283 0 45 116
0.01577126607298851 0.03232806175947189 0.19089999794960022 3 44 109
0.01611161231994629 0.032412733882665634 0.19139999151229858 9 50 115
-0.006762601900845766 0.03199395909905434 0.18719999492168427 0 42 109
-0.006473581772297621 0.03201105073094368 0.18729999661445618 0 42 109
-0.006184249650686979 0.032028138637542725 0.1873999983072281 0 42 111
-0.005897748749703169 0.03206232190132141 0.1876000016927719 0 42 111
-0.00560763431712985 0.032079409807920456 0.18769998848438263 0 43 111
-0.005317208357155323 0.0320965014398098 0.18779999017715454 0 43 111
-0.005029145162552595 0.032130684703588486 0.18799999356269836 0 43 113
-0.004737937822937965 0.03214777633547783 0.18809999525547028 0 43 113
-0.00444405572488904 0.03214777633547783 0.18809999525547028 0 44 114
-0.004150173161178827 0.03214777633547783 0.18809999525547028 0 44 114
-0.0038542405236512423 0.032130684703588486 0.18799999356269836 0 46 115
-0.0035605146549642086 0.032130684703588486 0.18799999356269836 0 45 114
-0.0032667883206158876 0.032130684703588486 0.18799999356269836 0 45 121
-0.002973062451928854 0.032130684703588486 0.18799999356269836 1 49 125
-0.0026779109612107277 0.03211359307169914 0.18789999186992645 0 47 136
-0.002384341321885586 0.03211359307169914 0.18789999186992645 0 53 142
-0.002091884147375822 0.032130684703588486 0.18799999356269836 2 66 158
-0.0017991145141422749 0.03214777633547783 0.18809999525547028 4 68 160
-0.0015068326611071825 0.03218195587396622 0.1882999986410141 7 78 177
-0.0012139257742092013 0.032216139137744904 0.18850000202655792 21 92 191
0.010930012911558151 0.03242122754454613 0.18969999253749847 0 42 109
0.011226396076381207 0.03242122754454613 0.18969999253749847 1 43 110
0.01151670329272747 0.032404135912656784 0.18959999084472656 0 44 112
0.011819159612059593 0.03242122754454613 0.18969999253749847 1 46 114
0.012115541845560074 0.03242122754454613 0.18969999253749847 0 47 114
0.01241192314773798 0.03242122754454613 0.18969999253749847 0 47 114
0.012715006247162819 0.03243831917643547 0.18979999423027039 0 48 114
0.013018399477005005 0.032455410808324814 0.1898999959230423 0 49 115
0.013315094634890556 0.032455410808324814 0.1898999959230423 0 49 115
0.013611788861453533 0.032455410808324814 0.1898999959230423 0 49 115
0.01390848308801651 0.032455410808324814 0.1898999959230423 0 49 115
0.014212657697498798 0.03247249871492386 0.1899999976158142 0 51 117
0.01450950838625431 0.03247249871492386 0.1899999976158142 0 49 117
0.014806360937654972 0.03247249871492386 0.1899999976158142 0 49 117
0.015103211626410484 0.03247249871492386 0.1899999976158142 0 49 117
0.015416272915899754 0.032506681978702545 0.19020000100135803 0 49 117
0.015729958191514015 0.03254086151719093 0.19039998948574066 0 44 113
0.016044270247220993 0.03257504478096962 0.19059999287128448 0 41 110
-0.006762601900845766 0.03228643536567688 0.18719999492168427 0 42 109
-0.006473581772297621 0.03230367973446846 0.18729999661445618 0 42 109
-0.006184249650686979 0.03232092782855034 0.1873999983072281 0 42 111
-0.005897748749703169 0.032355424016714096 0.1876000016927719 0 41 110
-0.00560763431712985 0.032372668385505676 0.18769998848438263 0 42 110
-0.005320039577782154 0.032407160848379135 0.18789999186992645 0 42 110
-0.005029145162552595 0.032424408942461014 0.18799999356269836 0 43 113
-0.004737937822937965 0.03244165703654289 0.18809999525547028 0 44 114
-0.00444405572488904 0.03244165703654289 0.18809999525547028 0 44 114
-0.004150173161178827 0.03244165703654289 0.18809999525547028 0 44 114
-0.0038562905974686146 0.03244165703654289 0.18809999525547028 0 45 114
-0.0035605146549642086 0.032424408942461014 0.18799999356269836 0 44 113
-0.0032667883206158876 0.032424408942461014 0.18799999356269836 0 46 119
-0.002971481066197157 0.032407160848379135 0.18789999186992645 0 46 119
-0.0026779109612107277 0.032407160848379135 0.18789999186992645 0 48 134
-0.002384341321885586 0.032407160848379135 0.18789999186992645 0 52 138
-0.0020907714497298002 0.032407160848379135 0.18789999186992645 7 64 156
-0.0017981580458581448 0.032424408942461014 0.18799999356269836 9 66 158
-0.0015060324221849442 0.03245890513062477 0.1881999969482422 17 81 171
0.011781777255237103 0.032614126801490784 0.1890999972820282 3 45 112
0.012077221646904945 0.032614126801490784 0.1890999972820282 1 46 112
0.012379209510982037 0.03263137489557266 0.1891999989748001 2 47 113
0.012681511230766773 0.03264862298965454 0.18930000066757202 1 48 115
0.012984123080968857 0.03266587108373642 0.18940000236034393 1 48 115
0.013287046924233437 0.032683115452528 0.18949998915195465 0 49 115
0.01357594970613718 0.03266587108373642 0.18940000236034393 0 49 115
0.013879186473786831 0.032683115452528 0.18949998915195465 0 49 115
0.014182736165821552 0.03270036354660988 0.18959999084472656 1 51 117
0.014478961937129498 0.03270036354660988 0.18959999084472656 0 49 117
0.01476739626377821 0.032683115452528 0.18949998915195465 0 49 117
0.015071414411067963 0.03270036354660988 0.18959999084472656 0 49 117
0.015367640182375908 0.03270036354660988 0.18959999084472656 1 51 119
0.01568038947880268 0.03273485600948334 0.18979999423027039 0 48 121
0.015993762761354446 0.032769352197647095 0.1899999976158142 0 44 117
-0.006758989300578833 0.03256150707602501 0.18709999322891235 0 42 109
-0.006473581772297621 0.03259631246328354 0.18729999661445618 0 42 109
-0.006184249650686979 0.03261371701955795 0.1873999983072281 0 42 111
-0.005894605070352554 0.03263112157583237 0.1875 0 41 110
-0.00560763431712985 0.0326659269630909 0.18769998848438263 0 42 110
-0.005317208357155323 0.03268332779407501 0.18779999017715454 0 43 111
-0.005029145162552595 0.03271813690662384 0.18799999356269836 0 44 114
-0.004735419061034918 0.03271813690662384 0.18799999356269836 0 44 114
-0.00444405572488904 0.032735537737607956 0.18809999525547028 0 44 114
-0.004150173161178827 0.032735537737607956 0.18809999525547028 0 44 114
-0.0038562905974686146 0.032735537737607956 0.18809999525547028 0 44 113
-0.003562408499419689 0.032735537737607956 0.18809999525547028 0 45 114
-0.0032667883206158876 0.03271813690662384 0.18799999356269836 0 46 119
-0.002971481066197157 0.032700732350349426 0.18789999186992645 0 46 119
-0.0026779109612107277 0.032700732350349426 0.18789999186992645 0 50 134
-0.0023830721620470285 0.03268332779407501 0.18779999017715454 0 50 134
-0.0020907714497298002 0.032700732350349426 0.18789999186992645 1 59 146
-0.0017981580458581448 0.03271813690662384 0.18799999356269836 10 68 155
0.01176308561116457 0.03285736218094826 0.18879999220371246 2 44 111
0.012051674537360668 0.03283995762467384 0.18869999051094055 0 47 114
0.012353037483990192 0.03285736218094826 0.18879999220371246 0 47 114
0.012648014351725578 0.03285736218094826 0.18879999220371246 0 49 115
0.01294299028813839 0.03285736218094826 0.18879999220371246 0 49 115
0.01324497815221548 0.03287476673722267 0.18889999389648438 0 49 115
0.013540109619498253 0.03287476673722267 0.18889999389648438 0 49 115
0.013842565938830376 0.03289216756820679 0.1889999955892563 0 49 117
0.014137854799628258 0.03289216756820679 0.1889999955892563 0 49 117
0.014440779574215412 0.0329095721244812 0.1890999972820282 0 49 117
0.01473622489720583 0.0329095721244812 0.1890999972820282 0 49 117
0.015031670220196247 0.0329095721244812 0.1890999972820282 0 50 121
0.015335219912230968 0.032926976680755615 0.1891999989748001 0 50 121
0.015639081597328186 0.03294438123703003 0.18930000066757202 0 48 119
0.01594325713813305 0.032961782068014145 0.18940000236034393 0 45 116
0.016273465007543564 0.0330313965678215 0.18979999423027039 0 46 113
0.016622385010123253 0.03313581272959709 0.19039998948574066 4 51 118
-0.006466669030487537 0.03285382688045502 0.18709999322891235 0 42 109
-0.006177649367600679 0.03287138417363167 0.18719999492168427 0 42 111
-0.0058914609253406525 0.03290650621056557 0.1873999983072281 0 42 111
-0.005601659882813692 0.03292406350374222 0.1875 0 42 110
-0.005314377136528492 0.03295918181538582 0.18769998848438263 0 43 111
-0.005023794714361429 0.03297674283385277 0.18779999017715454 0 44 114
-0.004735419061034918 0.03301186114549637 0.18799999356269836 0 44 114
-0.0044416929595172405 0.03301186114549637 0.18799999356269836 0 44 114
-0.004150173161178827 0.03302942216396332 0.18809999525547028 0 43 113
-0.0038542405236512423 0.03301186114549637 0.18799999356269836 0 43 113
-0.0035605146549642086 0.03301186114549637 0.18799999356269836 0 44 114
-0.0032667883206158876 0.03301186114549637 0.18799999356269836 0 45 117
-0.002971481066197157 0.03299430012702942 0.18789999186992645 0 44 116
-0.0026779109612107277 0.03299430012702942 0.18789999186992645 0 46 130
-0.002384341321885586 0.03299430012702942 0.18789999186992645 0 45 129
-0.0020896587520837784 0.03297674283385277 0.18779999017715454 3 54 139
-0.0017972015775740147 0.03299430012702942 0.18789999186992645 14 65 150
0.012032515369355679 0.03308210149407387 0.188400000333786 0 45 111
0.012326866388320923 0.03308210149407387 0.188400000333786 0 45 111
0.012621218338608742 0.03308210149407387 0.188400000333786 0 47 114
0.01292242482304573 0.03309966251254082 0.18850000202655792 0 47 114
0.013223942369222641 0.03311721608042717 0.18859998881816864 0 48 114
0.013518606312572956 0.03311721608042717 0.18859998881816864 0 49 115
0.013813269324600697 0.03311721608042717 0.18859998881816864 0 49 117
0.014115412719547749 0.03313477709889412 0.18869999051094055 0 49 117
0.014410232193768024 0.03313477709889412 0.18869999051094055 0 49 117
0.01470505353063345 0.03313477709889412 0.18869999051094055 0 49 117
0.015007821843028069 0.03315233811736107 0.18879999220371246 0 48 119
0.01530279777944088 0.03315233811736107 0.18879999220371246 0 48 119
0.015597773715853691 0.03315233811736107 0.18879999220371246 0 51 122
0.015901166945695877 0.03316989913582802 0.18889999389648438 0 51 122
0.016222022473812103 0.03322257846593857 0.1891999989748001 0 46 117
0.01657000370323658 0.03332793340086937 0.18979999423027039 0 51 122
-0.005598672199994326 0.03319929540157318 0.1873999983072281 0 42 110
-0.005311545915901661 0.03323472663760185 0.1876000016927719 0 43 111
-0.0050211199559271336 0.03325244039297104 0.18769998848438263 0 44 112
-0.004732899833470583 0.03328787162899971 0.18789999186992645 0 44 112
-0.00444405572488904 0.03332330286502838 0.18809999525547028 0 42 110
-0.004150173161178827 0.03332330286502838 0.18809999525547028 0 42 110
-0.0038542405236512423 0.033305589109659195 0.18799999356269836 0 43 113
-0.003562408499419689 0.03332330286502838 0.18809999525547028 0 44 114
-0.0032667883206158876 0.033305589109659195 0.18799999356269836 0 44 116
-0.002971481066197157 0.03328787162899971 0.18789999186992645 0 43 115
-0.0026779109612107277 0.03328787162899971 0.18789999186992645 0 46 126
-0.002384341321885586 0.03328787162899971 0.18789999186992645 0 46 126
-0.0020896587520837784 0.033270154148340225 0.18779999017715454 2 51 135
0.012013355270028114 0.03332330286502838 0.18809999525547028 0 44 110
0.012307236902415752 0.03332330286502838 0.18809999525547028 0 45 111
0.01260112039744854 0.03332330286502838 0.18809999525547028 0 46 113
0.012888147495687008 0.033305589109659195 0.18799999356269836 0 46 113
0.01318888459354639 0.03332330286502838 0.18809999525547028 0 47 115
0.013482767157256603 0.03332330286502838 0.18809999525547028 0 49 117
0.013776648789644241 0.03332330286502838 0.18809999525547028 0 51 119
0.014078011736273766 0.033341020345687866 0.1881999969482422 0 49 117
0.014379686675965786 0.03335873410105705 0.1882999986410141 0 50 121
0.014681675471365452 0.03337645158171654 0.188400000333786 0 48 119
0.014976026490330696 0.03337645158171654 0.188400000333786 0 49 119
0.01527037750929594 0.03337645158171654 0.188400000333786 0 51 121
0.015572990290820599 0.03339416906237602 0.18850000202655792 1 54 126
0.015892749652266502 0.03344731405377388 0.18879999220371246 0 53 125
0.016213448718190193 0.033500462770462036 0.1890999972820282 0 49 125
0.01655254326760769 0.033589038997888565 0.18959999084472656 0 51 128
0.0169109757989645 0.033713050186634064 0.19029998779296875 9 52 116
-0.0061677489429712296 0.03340272232890129 0.18689998984336853 0 42 109
-0.005878885742276907 0.03342059254646301 0.18699999153614044 1 43 110
-0.005592696834355593 0.033456336706876755 0.18719999492168427 0 43 111
-0.005305883474647999 0.0334920808672905 0.1873999983072281 0 44 112
-0.005018445197492838 0.03352782875299454 0.1876000016927719 0 44 112
-0.004730381071567535 0.03356356918811798 0.18779999017715454 0 43 111
-0.0044416929595172405 0.03359931334853172 0.18799999356269836 0 43 111
-0.004147966857999563 0.03359931334853172 0.18799999356269836 0 42 110
-0.0038562905974686146 0.03361718729138374 0.18809999525547028 0 43 113
-0.003562408499419689 0.03361718729138374 0.18809999525547028 0 44 114
-0.00326852616854012 0.03361718729138374 0.18809999525547028 0 43 116
-0.002971481066197157 0.0335814394056797 0.18789999186992645 0 43 116
-0.0026779109612107277 0.0335814394056797 0.18789999186992645 0 44 120
-0.002384341321885586 0.0335814394056797 0.18789999186992645 0 47 123
-0.0020896587520837784 0.03356356918811798 0.18779999017715454 0 46 124
-0.0017962451092898846 0.03356356918811798 0.18779999017715454 12 60 139
0.012287608347833157 0.03356356918811798 0.18779999017715454 3 44 109
0.012581022456288338 0.03356356918811798 0.18779999017715454 0 45 112
0.012860726565122604 0.03352782875299454 0.1876000016927719 0 46 113
0.013160837814211845 0.03354569524526596 0.18769998848438263 0 48 116
0.013454095460474491 0.03354569524526596 0.18769998848438263 1 51 119
0.013747352175414562 0.03354569524526596 0.18769998848438263 0 50 121
0.01404809020459652 0.03356356918811798 0.18779999017715454 0 50 121
0.014349140226840973 0.0335814394056797 0.18789999186992645 0 51 123
0.014650504104793072 0.03359931334853172 0.18799999356269836 0 51 123
0.014944230206310749 0.03359931334853172 0.18799999356269836 0 47 122
0.015246061608195305 0.03361718729138374 0.18809999525547028 0 50 125
0.015548205003142357 0.033635057508945465 0.1881999969482422 0 53 130
0.015875913202762604 0.03370654582977295 0.18859998881816864 0 54 131
0.016187725588679314 0.03374228999018669 0.18879999220371246 0 54 133
0.016535082831978798 0.03384952247142792 0.18940000236034393 0 52 131
0.016884315758943558 0.033956754952669144 0.1899999976158142 6 55 126
0.01724446564912796 0.03408185765147209 0.1906999945640564 18 67 139
-0.006157849449664354 0.03364064544439316 0.186599999666214 1 43 110
-0.005869454704225063 0.033658675849437714 0.1867000013589859 0 42 109
-0.005300220567733049 0.0337488129734993 0.18719999492168427 0 43 109
-0.005013094749301672 0.03378487005829811 0.1873999983072281 0 44 112
-0.004725344013422728 0.033820927143096924 0.1876000016927719 0 43 111
-0.004436967894434929 0.03385698422789574 0.18779999017715454 0 43 111
-0.004143553785979748 0.03385698422789574 0.18779999017715454 0 43 111
-0.00385219044983387 0.033875010907649994 0.18789999186992645 0 43 111
-0.0035605146549642086 0.03389303758740425 0.18799999356269836 0 43 111
-0.0032667883206158876 0.03389303758740425 0.18799999356269836 0 44 114
-0.002971481066197157 0.033875010907649994 0.18789999186992645 0 43 113
-0.0026779109612107277 0.033875010907649994 0.18789999186992645 0 43 117
-0.0023830721620470285 0.03385698422789574 0.18779999017715454 0 44 118
-0.0020885460544377565 0.03383895382285118 0.18769998848438263 0 42 121
-0.0017952886410057545 0.03383895382285118 0.18769998848438263 3 48 128
0.01226797979325056 0.03380290046334267 0.1875 4 44 112
0.012554226443171501 0.03378487005829811 0.1873999983072281 0 45 112
0.01284701470285654 0.03378487005829811 0.1873999983072281 0 46 113
0.013139803893864155 0.03378487005829811 0.1873999983072281 0 48 119
0.013432592153549194 0.03378487005829811 0.1873999983072281 0 50 121
0.013725380413234234 0.03378487005829811 0.1873999983072281 0 52 124
0.014025649055838585 0.03380290046334267 0.1875 0 52 124
0.014318594709038734 0.03380290046334267 0.1875 0 53 130
0.014619333669543266 0.033820927143096924 0.1876000016927719 0 52 129
0.01492038182914257 0.03383895382285118 0.18769998848438263 0 53 131
0.015221744775772095 0.03385698422789574 0.18779999017715454 0 54 132
0.015531681478023529 0.03389303758740425 0.18799999356269836 0 55 138
0.01585066132247448 0.03394712507724762 0.1882999986410141 0 54 137
0.016187725588679314 0.0340372659265995 0.18879999220371246 0 52 134
0.016526352614164352 0.034127406775951385 0.18930000066757202 0 53 135
0.016875430941581726 0.034235574305057526 0.1898999959230423 1 53 131
0.017235422506928444 0.03436177223920822 0.19059999287128448 7 59 137
-0.006154549308121204 0.033913999795913696 0.18649999797344208 1 43 110
-0.005863166879862547 0.033913999795913696 0.18649999797344208 0 42 109
-0.005574771668761969 0.03393218293786049 0.186599999666214 0 42 110
-0.005288895219564438 0.033968549221754074 0.18679998815059662 0 43 111
-0.0050023943185806274 0.03400491923093796 0.18699999153614044 0 43 111
-0.004717787262052298 0.03405947610735893 0.18729999661445618 0 43 111
-0.004429880063980818 0.034095846116542816 0.1875 0 43 111
-0.004139141645282507 0.03411402925848961 0.1876000016927719 0 43 111
-0.0038480900693684816 0.0341322124004364 0.18769998848438263 0 43 111
-0.003558620810508728 0.034168582409620285 0.18789999186992645 0 42 110
-0.003265050705522299 0.034168582409620285 0.18789999186992645 0 43 113
-0.002971481066197157 0.034168582409620285 0.18789999186992645 0 42 112
-0.0026764858048409224 0.034150395542383194 0.18779999017715454 0 42 115
-0.0023830721620470285 0.034150395542383194 0.18779999017715454 0 42 115
-0.0020885460544377565 0.0341322124004364 0.18769998848438263 0 39 116
-0.0017943322891369462 0.03411402925848961 0.1876000016927719 0 42 119
-0.0015012311050668359 0.03411402925848961 0.1876000016927719 0 42 114
0.012540828436613083 0.03404128924012184 0.18719999492168427 0 43 112
0.012826448306441307 0.03402310609817505 0.18709999322891235 0 41 110
0.013118768110871315 0.03402310609817505 0.18709999322891235 0 43 119
0.013411087915301323 0.03402310609817505 0.18709999322891235 0 46 122
0.013703407719731331 0.03402310609817505 0.18709999322891235 0 54 132
0.01400320790708065 0.03404128924012184 0.18719999492168427 3 60 138
0.014295684173703194 0.03404128924012184 0.18719999492168427 0 57 139
0.014595954678952694 0.03405947610735893 0.18729999661445618 0 56 138
0.014896536245942116 0.034077659249305725 0.1873999983072281 0 53 137
0.015197429805994034 0.034095846116542816 0.1875 0 53 137
0.015515157952904701 0.034150395542383194 0.18779999017715454 0 55 141
0.015842244029045105 0.03422313556075096 0.1881999969482422 0 55 141
0.016170576214790344 0.03429587185382843 0.18859998881816864 0 54 142
0.01650889217853546 0.03438679501414299 0.1890999972820282 0 55 143
0.016866544261574745 0.034514084458351135 0.18979999423027039 0 56 134
0.01721733808517456 0.03462319076061249 0.19039998948574066 0 57 135
-0.006141348741948605 0.03413201868534088 0.18609999120235443 1 43 110
-0.005853735376149416 0.03415036201477051 0.18619999289512634 0 42 109
-0.005568796768784523 0.03418704494833946 0.18639999628067017 0 43 109
-0.005283232778310776 0.03422372415661812 0.186599999666214 0 43 109
-0.004994369577616453 0.034242067486047745 0.1867000013589859 0 43 109
-0.004710230510681868 0.03429708629846573 0.18699999153614044 0 43 109
-0.004425154998898506 0.03435210883617401 0.18729999661445618 0 43 111
-0.0041347285732626915 0.03437045216560364 0.1873999983072281 0 43 111
-0.0038439901545643806 0.034388791769742966 0.1875 0 43 111
-0.0035548328887671232 0.03442547097802162 0.18769998848438263 0 42 110
-0.0032615752425044775 0.03442547097802162 0.18769998848438263 0 42 112
-0.00296989968046546 0.03444381058216095 0.18779999017715454 0 42 112
-0.0026764858048409224 0.03444381058216095 0.18779999017715454 0 44 114
-0.002381803235039115 0.03442547097802162 0.18769998848438263 0 44 114
-0.0020874333567917347 0.034407131373882294 0.1876000016927719 0 43 116
-0.0017933757044374943 0.034388791769742966 0.1875 0 38 111
-0.0015004308661445975 0.034388791769742966 0.1875 0 38 111
-0.001207485911436379 0.034388791769742966 0.1875 0 42 115
0.01252742949873209 0.03429708629846573 0.18699999153614044 0 40 111
0.012812737375497818 0.0342787466943264 0.18689998984336853 0 40 111
0.01309773325920105 0.034260403364896774 0.18679998815059662 0 48 126
0.013389583677053452 0.034260403364896774 0.18679998815059662 0 52 131
0.013681435026228428 0.034260403364896774 0.18679998815059662 0 56 139
0.013973286375403404 0.034260403364896774 0.18679998815059662 0 57 140
0.014272773638367653 0.0342787466943264 0.18689998984336853 0 58 145
0.014572575688362122 0.03429708629846573 0.18699999153614044 0 57 144
0.014872687868773937 0.034315429627895355 0.18709999322891235 0 56 145
0.015181219205260277 0.03435210883617401 0.18729999661445618 0 62 151
0.015498636290431023 0.034407131373882294 0.1876000016927719 0 65 156
0.015825407579541206 0.034480493515729904 0.18799999356269836 0 64 155
0.016170576214790344 0.03459053859114647 0.18859998881816864 0 64 154
0.016500161960721016 0.03466390073299408 0.1889999955892563 0 66 156
0.016857657581567764 0.03479228541254997 0.18969999253749847 6 62 143
0.017208294942975044 0.03490233048796654 0.19029998779296875 7 63 144
-0.005556846037507057 0.03440428152680397 0.18599998950958252 0 43 109
-0.005274738650768995 0.03445977345108986 0.18629999458789825 0 44 110
-0.004989019129425287 0.034496765583753586 0.18649999797344208 0 44 110
-0.004702674224972725 0.03453376144170761 0.1867000013589859 0 44 110
-0.004415704403072596 0.03457075357437134 0.18689998984336853 0 43 109
-0.004128109663724899 0.034607745707035065 0.18709999322891235 0 44 110
-0.0038398897740989923 0.03464474156498909 0.18729999661445618 0 43 111
-0.0035510454326868057 0.034681737422943115 0.1875 0 42 110
-0.0032581002451479435 0.034681737422943115 0.1875 0 42 110
-0.002968318061903119 0.03471872955560684 0.18769998848438263 0 43 111
-0.002675060648471117 0.03471872955560684 0.18769998848438263 0 43 113
-0.002381803235039115 0.03471872955560684 0.18769998848438263 0 44 114
-0.0020874333567917347 0.03470023348927498 0.1876000016927719 0 43 116
-0.0017943322891369462 0.03470023348927498 0.1876000016927719 0 43 116
-0.0015004308661445975 0.034681737422943115 0.1875 0 38 111
-0.0012068419018760324 0.03466323763132095 0.1873999983072281 0 41 114
-0.0006209330167621374 0.03464474156498909 0.18729999661445618 14 54 122
0.012514030560851097 0.034552257508039474 0.18679998815059662 0 46 119
0.012799027375876904 0.03453376144170761 0.1867000013589859 3 52 125
0.013083710335195065 0.03451526537537575 0.186599999666214 2 63 145
0.01337524875998497 0.03451526537537575 0.186599999666214 0 61 143
0.01366678811609745 0.03451526537537575 0.186599999666214 0 71 155
0.013958326540887356 0.03451526537537575 0.186599999666214 2 75 159
0.014249864965677261 0.03451526537537575 0.186599999666214 1 74 161
0.014556990005075932 0.034552257508039474 0.18679998815059662 1 74 161
0.014856790192425251 0.03457075357437134 0.18689998984336853 3 76 165
0.015173113904893398 0.03462624549865723 0.18719999492168427 7 80 169
0.015490374527871609 0.034681737422943115 0.1875 5 81 171
0.015825407579541206 0.03477422147989273 0.18799999356269836 5 81 171
0.016162004321813583 0.034866705536842346 0.18850000202655792 4 80 170
0.016500161960721016 0.03495918959379196 0.1889999955892563 1 77 167
0.016848770901560783 0.03507016971707344 0.18959999084472656 10 70 147
0.017208294942975044 0.03519964963197708 0.19029998779296875 15 75 152
-0.005550871603190899 0.03465757891535759 0.1858000010251999 0 43 109
-0.005263413768261671 0.03467623144388199 0.1859000027179718 0 44 110
-0.004978318698704243 0.034713536500930786 0.18609999120235443 0 43 109
-0.004695117473602295 0.03476949408650398 0.18639999628067017 0 44 110
-0.0044086165726184845 0.03480680286884308 0.186599999666214 0 44 110
-0.004123696591705084 0.034862760454416275 0.18689998984336853 0 44 110
-0.003835789393633604 0.03490006551146507 0.18709999322891235 0 43 111
-0.0035453634336590767 0.03491872176527977 0.18719999492168427 0 43 111
-0.0032581002451479435 0.034974679350852966 0.1875 0 43 111
-0.0029667369090020657 0.034993335604667664 0.1876000016927719 0 43 111
-0.002675060648471117 0.035011984407901764 0.18769998848438263 0 42 112
-0.002381803235039115 0.035011984407901764 0.18769998848438263 0 43 113
-0.0020874333567917347 0.034993335604667664 0.1876000016927719 0 43 113
-0.0017933757044374943 0.034974679350852966 0.1875 0 43 113
-0.0014996306272223592 0.03495602682232857 0.1873999983072281 0 43 113
-0.0012068419018760324 0.03495602682232857 0.1873999983072281 0 40 110
0.012507332488894463 0.03482545539736748 0.1867000013589859 1 53 129
0.012792171910405159 0.03480680286884308 0.186599999666214 17 69 145
0.013076698407530785 0.03478815034031868 0.18649999797344208 15 82 166
0.013360912911593914 0.03476949408650398 0.18639999628067017 16 83 167
0.0136594632640481 0.03478815034031868 0.18649999797344208 9 87 174
0.013950846157968044 0.03478815034031868 0.18649999797344208 8 86 173
0.014249864965677261 0.03480680286884308 0.186599999666214 6 86 177
0.014541405253112316 0.03480680286884308 0.186599999666214 7 87 178
0.014856790192425251 0.034862760454416275 0.18689998984336853 6 86 177
0.015165007673203945 0.03490006551146507 0.18709999322891235 5 85 176
0.015498636290431023 0.034993335604667664 0.1876000016927719 6 86 179
0.01583382487297058 0.03508659824728966 0.18809999525547028 5 85 178
0.016170576214790344 0.03517986461520195 0.18859998881816864 3 80 172
0.016500161960721016 0.035254478454589844 0.1889999955892563 0 72 164
0.016857657581567764 0.035385049879550934 0.18969999253749847 12 72 149
-0.004972968716174364 0.03496667742729187 0.1859000027179718 0 44 110
-0.004687560722231865 0.03500429168343544 0.18609999120235443 0 45 111
-0.004403891507536173 0.03506072238087654 0.18639999628067017 0 44 110
-0.004117077682167292 0.03509834036231041 0.186599999666214 0 44 110
-0.0038296389393508434 0.03513595834374428 0.18679998815059662 0 43 109
-0.0035415757447481155 0.035173576325178146 0.18699999153614044 0 43 109
-0.003254624782130122 0.03523000702261925 0.18729999661445618 0 43 111
-0.0029635741375386715 0.03524881601333618 0.1873999983072281 0 44 112
-0.0026736357249319553 0.03528643399477005 0.1876000016927719 0 42 110
-0.002380534540861845 0.03528643399477005 0.1876000016927719 0 42 110
-0.0020874333567917347 0.03528643399477005 0.1876000016927719 0 42 112
-0.0017933757044374943 0.035267625004053116 0.1875 0 43 113
-0.0014996306272223592 0.03524881601333618 0.1873999983072281 0 43 113
-0.0012061978923156857 0.03523000702261925 0.18729999661445618 0 42 112
-0.0009130776743404567 0.03521119803190231 0.18719999492168427 0 39 109
-0.0006202699732966721 0.03519238531589508 0.18709999322891235 0 39 109
0.012507332488894463 0.035117149353027344 0.1867000013589859 4 59 136
0.013076698407530785 0.035079531371593475 0.18649999797344208 14 88 170
0.013360912911593914 0.03506072238087654 0.18639999628067017 15 89 171
0.013652139343321323 0.03506072238087654 0.18639999628067017 7 88 174
0.013950846157968044 0.035079531371593475 0.18649999797344208 1 82 168
0.014249864965677261 0.03509834036231041 0.186599999666214 1 81 172
0.014549197629094124 0.035117149353027344 0.1867000013589859 1 81 172
0.014864739030599594 0.035173576325178146 0.18699999153614044 1 81 174
0.015181219205260277 0.03523000702261925 0.18729999661445618 0 80 173
0.015506896190345287 0.035305242985486984 0.18769998848438263 0 80 173
0.01585066132247448 0.03541810065507889 0.1882999986410141 0 79 172
0.016187725588679314 0.03551214560866356 0.18879999220371246 0 77 169
0.016517622396349907 0.035587385296821594 0.1891999989748001 0 73 165
0.016866544261574745 0.0357002392411232 0.18979999423027039 16 78 155
-0.004396803677082062 0.03529505059123039 0.18609999120235443 0 43 109
-0.0041126650758087635 0.0353519469499588 0.18639999628067017 0 43 109
-0.003825538791716099 0.03538988158106804 0.186599999666214 0 43 109
-0.003535894211381674 0.03540884703397751 0.1867000013589859 0 43 109
-0.0032511495519429445 0.03548470512032509 0.18709999322891235 0 43 109
-0.0029604111332446337 0.03550367429852486 0.18719999492168427 0 43 109
-0.002670785179361701 0.035541605204343796 0.1873999983072281 0 42 110
-0.0014988303883001208 0.035522639751434326 0.18729999661445618 0 42 110
-0.0012061978923156857 0.035522639751434326 0.18729999661445618 0 42 110
-0.0009125899523496628 0.03548470512032509 0.18709999322891235 0 43 111
-0.0006199384806677699 0.03546573966741562 0.18699999153614044 0 43 111
0.012514030560851097 0.03542780876159668 0.18679998815059662 5 65 142
0.013083710335195065 0.03538988158106804 0.186599999666214 15 94 176
0.01336808130145073 0.03537091240286827 0.18649999797344208 12 91 173
0.0136594632640481 0.03537091240286827 0.18649999797344208 0 83 173
0.013958326540887356 0.03538988158106804 0.186599999666214 0 82 172
0.014249864965677261 0.03538988158106804 0.186599999666214 0 81 173
0.014556990005075932 0.03542780876159668 0.18679998815059662 0 81 173
0.014872687868773937 0.03548470512032509 0.18709999322891235 0 80 175
0.015189324505627155 0.035541605204343796 0.1873999983072281 0 80 175
0.015515157952904701 0.035617467015981674 0.18779999017715454 0 78 173
0.01585066132247448 0.03571229428052902 0.1882999986410141 0 78 173
0.016187725588679314 0.03580712154507637 0.18879999220371246 0 72 162
0.016517622396349907 0.03588298708200455 0.1891999989748001 0 75 165
-0.0046724481508135796 0.035471078008413315 0.18549999594688416 0 46 109
-0.0043873535469174385 0.035509321838617325 0.18569999933242798 0 44 110
-0.00410383939743042 0.03556668385863304 0.18599998950958252 0 44 110
-0.003819388337433338 0.035624053329229355 0.18629999458789825 0 45 111
-0.003532106289640069 0.035662297159433365 0.18649999797344208 0 45 111
-0.0032459364738315344 0.03571965917944908 0.18679998815059662 0 44 110
-0.0029572483617812395 0.03575790300965309 0.18699999153614044 0 44 110
-0.002666509710252285 0.035777024924755096 0.18709999322891235 0 43 111
-0.002375458599999547 0.0357961505651474 0.18719999492168427 0 43 111
-0.0020829825662076473 0.0357961505651474 0.18719999492168427 0 43 111
-0.001790506299585104 0.0357961505651474 0.18719999492168427 0 43 111
-0.0014988303883001208 0.035815272480249405 0.18729999661445618 0 42 110
-0.0012055538827553391 0.0357961505651474 0.18719999492168427 0 42 110
-0.0009125899523496628 0.035777024924755096 0.18709999322891235 0 43 111
-0.0006196069298312068 0.035738781094551086 0.18689998984336853 0 42 110
-0.0003274241753388196 0.03571965917944908 0.18679998815059662 0 43 111
0.012235264293849468 0.03575790300965309 0.18699999153614044 1 43 110
0.01252073049545288 0.035738781094551086 0.18689998984336853 14 78 154
0.013083710335195065 0.03568141907453537 0.186599999666214 11 96 176
0.01337524875998497 0.03568141907453537 0.186599999666214 7 92 172
0.01366678811609745 0.03568141907453537 0.186599999666214 0 82 172
0.013965806923806667 0.035700540989637375 0.1867000013589859 0 82 172
0.014265136793255806 0.03571965917944908 0.18679998815059662 0 80 175
0.01456478238105774 0.035738781094551086 0.18689998984336853 0 79 174
0.014880637638270855 0.0357961505651474 0.18719999492168427 0 80 175
0.015197429805994034 0.035853516310453415 0.1875 0 79 174
0.015523419715464115 0.035930000245571136 0.18789999186992645 0 78 173
0.015859078615903854 0.03602561354637146 0.188400000333786 0 76 171
0.016187725588679314 0.03610209748148918 0.18879999220371246 0 72 161
0.016517622396349907 0.0361785888671875 0.1891999989748001 4 77 166
-0.003811188042163849 0.035838011652231216 0.1859000027179718 1 46 112
-0.0035264245234429836 0.03589584305882454 0.18619999289512634 1 46 112
-0.003240723628550768 0.03595367819070816 0.18649999797344208 1 46 114
-0.002950922818854451 0.0359729565680027 0.186599999666214 0 44 112
-0.0026622340083122253 0.03601150959730148 0.18679998815059662 0 42 110
-0.00237292074598372 0.036050066351890564 0.18699999153614044 0 43 111
-0.00208075693808496 0.036050066351890564 0.18699999153614044 0 43 111
-0.001789549831300974 0.036069344729185104 0.18709999322891235 0 43 111
-0.0014972299104556441 0.036069344729185104 0.18709999322891235 0 43 111
-0.0012049098731949925 0.036069344729185104 0.18709999322891235 0 43 111
-0.0009121021721512079 0.036050066351890564 0.18699999153614044 0 43 111
-0.0006196069298312068 0.036030787974596024 0.18689998984336853 0 42 110
-0.0003274241753388196 0.03601150959730148 0.18679998815059662 0 42 110
-3.557293166522868e-05 0.03601150959730148 0.18679998815059662 0 43 111
0.0002560039283707738 0.0359729565680027 0.186599999666214 0 42 110
0.012235264293849468 0.036050066351890564 0.18699999153614044 10 52 119
0.01252742949873209 0.036050066351890564 0.18699999153614044 19 87 164
0.01309773325920105 0.03601150959730148 0.18679998815059662 8 93 173
0.013389583677053452 0.03601150959730148 0.18679998815059662 5 90 170
0.013688758946955204 0.036030787974596024 0.18689998984336853 0 83 173
0.013980766758322716 0.036030787974596024 0.18689998984336853 0 81 171
0.0142804104834795 0.036050066351890564 0.18699999153614044 0 81 173
0.014580368995666504 0.036069344729185104 0.18709999322891235 0 81 173
0.014896536245942116 0.036127179861068726 0.1873999983072281 0 81 173
0.015205535106360912 0.036165740340948105 0.1876000016927719 0 80 172
0.015531681478023529 0.03624285012483597 0.18799999356269836 0 76 167
0.015859078615903854 0.03631996363401413 0.188400000333786 0 74 165
0.016187725588679314 0.03639707341790199 0.18879999220371246 5 72 156
0.01650889217853546 0.036454908549785614 0.1890999972820282 11 78 162
-0.0038050375878810883 0.03607015311717987 0.18559999763965607 0 45 111
-0.0035207432229071856 0.0361284539103508 0.1859000027179718 0 43 109
-0.0032355105504393578 0.03618675842881203 0.18619999289512634 0 44 110
-0.0029477598145604134 0.03622562810778618 0.18639999628067017 0 43 109
-0.002079644240438938 0.03632279857993126 0.18689998984336853 0 43 109
-0.0014964296715334058 0.036342229694128036 0.18699999153614044 0 43 109
-0.001204265863634646 0.036342229694128036 0.18699999153614044 0 43 109
-0.0009121021721512079 0.036342229694128036 0.18699999153614044 0 43 111
-0.0006196069298312068 0.03632279857993126 0.18689998984336853 0 43 111
-0.0003275994386058301 0.03632279857993126 0.18689998984336853 0 43 111
-3.557293166522868e-05 0.03630336374044418 0.18679998815059662 0 43 111
0.00025614112382754683 0.03628392890095711 0.1867000013589859 0 43 111
0.0005478361272253096 0.03628392890095711 0.1867000013589859 0 43 111
0.0008395311306230724 0.03628392890095711 0.1867000013589859 0 42 110
0.013111756183207035 0.036342229694128036 0.18699999153614044 12 87 162
0.013403920456767082 0.036342229694128036 0.18699999153614044 7 82 157
0.013703407719731331 0.03636166453361511 0.18709999322891235 0 80 163
0.013995727524161339 0.03636166453361511 0.18709999322891235 0 82 165
0.014295684173703194 0.03638109937310219 0.18719999492168427 0 81 167
0.014595954678952694 0.036400534212589264 0.18729999661445618 0 77 163
0.014904485084116459 0.036439403891563416 0.1875 0 74 162
0.015221744775772095 0.036497704684734344 0.18779999017715454 0 73 161
0.015539943240582943 0.03655600920319557 0.18809999525547028 3 73 158
0.01586749777197838 0.036633748561143875 0.18850000202655792 3 73 158
-0.0035112735349684954 0.036320947110652924 0.18539999425411224 0 42 109
-0.0032285600900650024 0.03639930859208107 0.1858000010251999 0 42 111
-0.002943015657365322 0.036458078771829605 0.18609999120235443 0 41 110
-0.0026551082264631987 0.03649726137518883 0.18629999458789825 0 42 110
-0.002366576110944152 0.03653644397854805 0.18649999797344208 0 42 110
-0.0020763063803315163 0.03655603528022766 0.186599999666214 0 44 112
-0.0017857240745797753 0.03657562658190727 0.1867000013589859 0 43 111
-0.001494829193688929 0.036595214158296585 0.18679998815059662 0 42 110
-0.0012029778445139527 0.036595214158296585 0.18679998815059662 0 42 110
-0.0009116143919527531 0.036614805459976196 0.18689998984336853 0 42 110
-0.0006196069298312068 0.036614805459976196 0.18689998984336853 0 42 110
-0.0003275994386058301 0.036614805459976196 0.18689998984336853 0 43 111
-3.5591976484283805e-05 0.036614805459976196 0.18689998984336853 0 43 111
0.0002562783192843199 0.036595214158296585 0.18679998815059662 0 43 111
0.0005481295520439744 0.036595214158296585 0.18679998815059662 0 43 111
0.000839980726595968 0.036595214158296585 0.18679998815059662 0 43 111
0.0011306203668937087 0.03655603528022766 0.186599999666214 0 42 110
0.0014229211956262589 0.03657562658190727 0.1867000013589859 0 42 110
0.013125780038535595 0.03667357563972473 0.18719999492168427 11 78 149
0.013425423763692379 0.03669316694140434 0.18729999661445618 9 76 147
0.013718056492507458 0.03669316694140434 0.18729999661445618 3 74 150
0.014010688289999962 0.03669316694140434 0.18729999661445618 4 75 151
0.014318594709038734 0.036732349544763565 0.1875 4 75 151
0.014611540362238884 0.036732349544763565 0.1875 4 75 151
0.01492038182914257 0.03677152842283249 0.18769998848438263 6 72 150
0.015229850076138973 0.03681071102619171 0.18789999186992645 6 72 150
0.015548205003142357 0.03686948120594025 0.1881999969482422 14 72 143
0.01586749777197838 0.03692825511097908 0.18850000202655792 17 75 146
-0.0020751936826854944 0.036827825009822845 0.18649999797344208 0 43 109
-0.0017847676062956452 0.03684757277369499 0.186599999666214 0 44 110
-0.0014932288322597742 0.03684757277369499 0.186599999666214 0 42 110
-0.001202333951368928 0.03686732053756714 0.1867000013589859 0 42 110
-0.0009111266699619591 0.03688706457614899 0.18679998815059662 0 42 110
-0.0006192754372023046 0.03688706457614899 0.18679998815059662 0 43 111
-0.0003275994386058301 0.03690681234002113 0.18689998984336853 0 43 111
-3.5591976484283805e-05 0.03690681234002113 0.18689998984336853 0 43 111
0.0002564155147410929 0.03690681234002113 0.18689998984336853 0 43 111
0.0005484229768626392 0.03690681234002113 0.18689998984336853 0 43 111
0.000839980726595968 0.03688706457614899 0.18679998815059662 0 43 111
0.0011318320175632834 0.03688706457614899 0.18679998815059662 0 42 110
0.001423683250322938 0.03688706457614899 0.18679998815059662 0 42 110
0.0017155345994979143 0.03688706457614899 0.18679998815059662 0 42 110
0.002007385715842247 0.03688706457614899 0.18679998815059662 0 44 112
0.0022992370650172234 0.03688706457614899 0.18679998815059662 0 45 113
-0.0026437067426741123 0.036920178681612015 0.18549999594688416 0 41 110
-0.0023576936218887568 0.03697988763451576 0.1858000010251999 0 41 110
-0.0020718553569167852 0.03705949708819389 0.18619999289512634 0 41 110
-0.0017828545533120632 0.03709930554032326 0.18639999628067017 0 42 111
-0.0012016899418085814 0.03713911026716232 0.186599999666214 0 42 110
-0.0009101511677727103 0.03713911026716232 0.186599999666214 0 42 110
-0.0006189439445734024 0.037159014493227005 0.1867000013589859 0 42 110
-0.0003275994386058301 0.03719881922006607 0.18689998984336853 0 42 110
-3.561102130333893e-05 0.03721872344613075 0.18699999153614044 0 43 111
0.00025655271019786596 0.03721872344613075 0.18699999153614044 0 44 112
0.000548716401681304 0.03721872344613075 0.18699999153614044 0 43 111
0.000840880093164742 0.03721872344613075 0.18699999153614044 0 43 111
0.0011324379593133926 0.03719881922006607 0.18689998984336853 0 43 111
0.001424445421434939 0.03719881922006607 0.18689998984336853 0 43 111
0.0017155345994979143 0.03717891499400139 0.18679998815059662 0 43 111
0.002007385715842247 0.03717891499400139 0.18679998815059662 0 44 112
0.0023004678077995777 0.03719881922006607 0.18689998984336853 0 45 113
0.002591088181361556 0.03717891499400139 0.18679998815059662 0 45 113
0.0028829395305365324 0.03717891499400139 0.18679998815059662 0 43 111
-0.002065179171040654 0.037230055779218674 0.18559999763965607 0 42 110
-0.0017780723283067346 0.03729023411870003 0.1859000027179718 0 43 111
-0.0014892275212332606 0.037330351769924164 0.18609999120235443 0 42 110
-0.0012004019226878881 0.03739053010940552 0.18639999628067017 0 42 110
-0.0009096634457819164 0.037410590797662735 0.18649999797344208 0 42 110
-0.0006186124519445002 0.03743065148591995 0.186599999666214 0 42 110
-0.0003274241753388196 0.03747076541185379 0.18679998815059662 0 42 110
-3.5591976484283805e-05 0.03749082610011101 0.18689998984336853 0 43 111
0.00025655271019786596 0.037510886788368225 0.18699999153614044 0 43 111
0.000548716401681304 0.037510886788368225 0.18699999153614044 0 43 111
0.000840880093164742 0.037510886788368225 0.18699999153614044 0 43 111
0.0011330439010635018 0.037510886788368225 0.18699999153614044 0 44 112
0.0014252075925469398 0.037510886788368225 0.18699999153614044 0 44 112
0.0017173714004456997 0.037510886788368225 0.18699999153614044 0 44 112
0.002009534975513816 0.037510886788368225 0.18699999153614044 0 45 113
0.0023004678077995777 0.03749082610011101 0.18689998984336853 0 45 113
0.002592475386336446 0.03749082610011101 0.18689998984336853 0 44 112
0.0028829395305365324 0.03747076541185379 0.18679998815059662 0 43 111
0.003171391785144806 0.03743065148591995 0.186599999666214 0 43 111
0.0034629306755959988 0.03743065148591995 0.186599999666214 0 43 111
-0.002059615682810545 0.03741895407438278 0.1850999891757965 0 41 110
-0.0017723334021866322 0.03745938464999199 0.18529999256134033 0 41 110
-0.0011965379817411304 0.037560462951660156 0.1858000010251999 0 43 111
-0.0009077123831957579 0.037621110677719116 0.18609999120235443 0 44 112
-0.0006176178576424718 0.03766154125332832 0.18629999458789825 0 43 111
-0.00032707361970096827 0.03772218897938728 0.186599999666214 0 43 111
-3.555389412213117e-05 0.037742406129837036 0.1867000013589859 0 43 111
0.0002564155147410929 0.037782832980155945 0.18689998984336853 0 43 111
0.000548716401681304 0.0378030501306057 0.18699999153614044 0 43 111
0.0008413297473452985 0.03782326355576515 0.18709999322891235 0 42 110
0.0011330439010635018 0.0378030501306057 0.18699999153614044 0 43 111
0.0014259697636589408 0.03782326355576515 0.18709999322891235 0 44 112
0.0017182898009195924 0.03782326355576515 0.18709999322891235 0 44 112
0.002010609721764922 0.03782326355576515 0.18709999322891235 0 44 112
0.0023016987834125757 0.0378030501306057 0.18699999153614044 0 44 112
0.002592475386336446 0.037782832980155945 0.18689998984336853 0 43 111
0.0028829395305365324 0.03776261582970619 0.18679998815059662 0 43 111
0.0031730912160128355 0.037742406129837036 0.1867000013589859 0 43 111
0.0034629306755959988 0.03772218897938728 0.186599999666214 0 43 111
0.0037504450883716345 0.037681758403778076 0.18639999628067017 0 44 112
0.004035166464745998 0.037621110677719116 0.18609999120235443 0 42 110
-0.0017685076454654336 0.0376674085855484 0.18490000069141388 0 42 109
-0.001481225248426199 0.03770814836025238 0.1850999891757965 0 43 109
-0.0011933180503547192 0.03774889186024666 0.18529999256134033 0 43 109
-0.0009047858766280115 0.037789635360240936 0.18549999594688416 0 43 111
-0.000615960278082639 0.0378507524728775 0.1858000010251999 0 43 111
-0.0003263724793214351 0.03793223947286606 0.18619999289512634 0 43 111
-3.551580448402092e-05 0.037993356585502625 0.18649999797344208 0 43 111
0.0002560039283707738 0.038013726472854614 0.186599999666214 0 43 111
0.0005481295520439744 0.03805446997284889 0.18679998815059662 0 43 111
0.0008404304389841855 0.03807483986020088 0.18689998984336853 0 42 110
0.001133649842813611 0.03811558336019516 0.18709999322891235 0 42 110
0.0014259697636589408 0.03811558336019516 0.18709999322891235 0 43 111
0.0017182898009195924 0.03811558336019516 0.18709999322891235 0 44 112
0.002010609721764922 0.03811558336019516 0.18709999322891235 0 44 112
0.0023016987834125757 0.03809521347284317 0.18699999153614044 0 43 111
0.002592475386336446 0.03807483986020088 0.18689998984336853 0 43 111
0.0028813963290303946 0.0380341000854969 0.1867000013589859 0 43 111
0.003171391785144806 0.038013726472854614 0.186599999666214 0 43 111
0.0034610747825354338 0.037993356585502625 0.18649999797344208 0 43 111
0.0037484329659491777 0.03795260936021805 0.18629999458789825 0 43 111
0.0040329983457922935 0.03789149597287178 0.18599998950958252 0 42 110
0.004316626116633415 0.03783038258552551 0.18569999933242798 0 43 111
0.004599316511303186 0.03776926547288895 0.18539999425411224 0 44 112
0.004881069529801607 0.03770814836025238 0.1850999891757965 0 44 110
-0.001477224170230329 0.037894707173109055 0.18459999561309814 0 42 109
-0.001190098118968308 0.0379357635974884 0.18479999899864197 0 42 109
-0.000902834814041853 0.03799734637141228 0.1850999891757965 0 44 112
-0.0006139711476862431 0.0380178727209568 0.18519999086856842 0 44 112
-0.0003251455200370401 0.038079459220170975 0.18549999594688416 0 44 112
-3.540154648362659e-05 0.03816157206892967 0.1859000027179718 0 43 111
0.0002554551465436816 0.038223154842853546 0.18619999289512634 0 43 111
0.00054724927758798 0.03828474134206772 0.18649999797344208 0 43 111
0.0008390814764425159 0.038305267691612244 0.186599999666214 0 42 110
0.0011318320175632834 0.038346320390701294 0.18679998815059662 0 43 111
0.001424445421434939 0.03836685046553612 0.18689998984336853 0 43 111
0.0017173714004456997 0.03838738054037094 0.18699999153614044 0 44 112
0.002009534975513816 0.03838738054037094 0.18699999153614044 0 44 112
0.0023004678077995777 0.03836685046553612 0.18689998984336853 0 44 112
0.00258970120921731 0.03832579776644707 0.1867000013589859 0 43 111
0.002879852894693613 0.038305267691612244 0.186599999666214 0 43 111
0.0031679924577474594 0.038264211267232895 0.18639999628067017 0 43 111
0.0034555073361843824 0.038223154842853546 0.18619999289512634 0 43 111
0.003744408953934908 0.03820262849330902 0.18609999120235443 0 43 111
0.004028662107884884 0.03814104571938515 0.1858000010251999 0 42 110
0.0043096523731946945 0.03805893287062645 0.18539999425411224 0 42 110
0.004591874312609434 0.03799734637141228 0.1850999891757965 0 44 112
