ply
format ascii 1.0
element vertex 832
property float x
property float y
property float z
end_header
-15.774657249450684 -5.393824577331543 24.628944396972656
-7.7419633865356445 -3.8585355281829834 23.19424057006836
-16.272221565246582 -9.175374984741211 14.142326354980469
-15.094480514526367 -8.752655029296875 13.589350700378418
-17.78982925415039 -9.878538131713867 13.543695449829102
-14.256243705749512 -5.215707778930664 24.384262084960938
-9.676182746887207 -1.3742918968200684 13.441163063049316
-29.996906280517578 -2.376514434814453 24.523584365844727
-8.63481855392456 -4.072289943695068 23.445568084716797
-9.031105041503906 -3.8593711853027344 24.20703125
-10.828766822814941 -5.276790142059326 15.059992790222168
-11.819485664367676 -6.1414475440979 14.250707626342773
-6.226953029632568 -3.3439674377441406 23.14957046508789
-19.333568572998047 -10.381484031677246 13.002939224243164
-20.901866912841797 -10.729798316955566 12.33323860168457
-20.786087036132812 -10.437708854675293 13.492827415466309
-7.21019983291626 -3.641003131866455 23.316490173339844
-22.49123191833496 -10.966631889343262 11.278120994567871
-15.094862937927246 -5.162049293518066 24.76795768737793
-23.99638557434082 -10.65698528289795 12.027268409729004
-10.655078887939453 -4.483660697937012 12.813408851623535
-9.752113342285156 -1.8116929531097412 13.433754920959473
-30.47911834716797 -1.6966415643692017 24.376977920532227
-23.822250366210938 -4.71484375 25.885801315307617
-23.127208709716797 -5.722207069396973 24.854219436645508
-25.200849533081055 -5.217469692230225 24.979597091674805
-9.757487297058105 -1.8386157751083374 13.43323040008545
-13.576486587524414 -4.974853038787842 24.51007843017578
-11.85335636138916 -6.253403186798096 15.317076683044434
-30.950342178344727 -1.1539547443389893 24.0416202545166
-29.92671012878418 -1.8873263597488403 24.84654426574707
-16.053257942199707 -5.107036590576172 25.12377166748047
-17.94634437561035 -4.862515926361084 25.80600929260254
-16.415595054626465 -4.444593906402588 26.005409240722656
-9.762939453125 -1.8655266761779785 13.432697296142578
-14.581082344055176 -4.9895920753479 24.856204986572266
-7.802796840667725 -3.7415356636047363 23.60392951965332
-7.762554168701172 -3.403067111968994 24.306964874267578
-19.135780334472656 -10.0079927444458 14.274166107177734
-9.774083137512207 -1.9193127155303955 13.431607246398926
-14.031366348266602 -4.807454586029053 24.935876846313477
-22.402034759521484 -10.632232666015625 12.823505401611328
-23.87741470336914 -10.366813659667969 13.440248489379883
-6.001414775848389 -3.154839038848877 23.560884475708008
-6.441765308380127 -2.9421675205230713 24.415475845336914
-9.797321319580078 -2.026735305786133 13.42933464050293
-12.33545207977295 -4.54505729675293 24.682785034179688
-5.692225456237793 -0.3774935305118561 34.098886489868164
25.968093872070312 -0.5515688061714172 -32.686540603637695
25.973846435546875 -0.4568064212799072 -32.695993423461914
-10.868939399719238 -4.893325328826904 12.769442558288574
-29.72666358947754 -1.243475317955017 25.26760482788086
-29.238744735717773 -1.8288344144821167 25.462068557739258
25.953508377075195 -0.7403240203857422 -32.66245460510254
25.952472686767578 -0.7519429922103882 -32.66074180603027
-32.18073272705078 -6.77899169921875 4.115320920944214
-9.847590446472168 -2.24094557762146 13.424412727355957
-22.200281143188477 -10.249625205993652 14.415177345275879
-13.25703239440918 -4.554739475250244 25.02429962158203
25.95142364501953 -0.763556957244873 -32.659006118774414
-5.43340539932251 -2.93247127532959 23.688018798828125
25.949275970458984 -0.7867696285247803 -32.655447006225586
-5.629117012023926 -2.6728029251098633 24.56532096862793
25.944793701171875 -0.8331316113471985 -32.648019790649414
-14.308014869689941 -4.562628269195557 25.35573387145996
-14.698173522949219 -3.9923224449157715 26.096786499023438
25.93508529663086 -0.9255857467651367 -32.631914138793945
-1.6402652263641357 -1.6887145042419434 24.592201232910156
-0.8726595938205719 -1.3864729404449463 25.05318832397461
-1.4769824743270874 -1.5242983102798462 24.020652770996094
25.929861068725586 -0.9716683030128479 -32.623239517211914
-32.313982009887695 -6.6367011070251465 6.401943683624268
25.924388885498047 -1.0176482200622559 -32.614145278930664
-32.35201072692871 -6.503483772277832 8.343581676483154
-12.644021034240723 -4.35761022567749 25.07612419128418
25.912708282470703 -1.1092811822891235 -32.5947208404541
-9.874616622924805 -2.3477113246917725 13.421764373779297
25.899749755859375 -1.2025097608566284 -32.57315254211426
-9.902900695800781 -2.454235792160034 13.418992042541504
-32.3385124206543 -6.399116039276123 9.765321731567383
25.885770797729492 -1.295209527015686 -32.54986763000488
-28.699909210205078 -1.1873276233673096 26.070695877075195
-28.41607666015625 -1.7623224258422852 26.07218360900879
25.854782104492188 -1.4788626432418823 -32.49819755554199
-10.475143432617188 -3.921243906021118 24.82432746887207
-11.101311683654785 -5.294966220855713 12.721658706665039
25.78277015686035 -1.8298543691635132 -32.37795448303223
-32.23572540283203 -6.203817367553711 12.247708320617676
25.74118995666504 -2.000918984413147 -32.308454513549805
-11.112492561340332 -5.313323974609375 12.719359397888184
-27.516550064086914 -1.6930185556411743 26.6137638092041
-32.1632137298584 -6.116339683532715 13.298815727233887
-11.20845890045166 -3.9050445556640625 25.14129638671875
-12.359827041625977 -3.9785053730010986 25.45652961730957
25.695981979370117 -2.1686527729034424 -32.23284721374512
-11.451200485229492 -3.1748239994049072 25.9703369140625
25.693805694580078 -2.1763198375701904 -32.22920799255371
-9.963228225708008 -2.666517972946167 13.41307544708252
-27.500869750976562 -1.1257929801940918 26.786958694458008
-10.331262588500977 -3.6341214179992676 25.146347045898438
25.475086212158203 -2.8140416145324707 -31.8630313873291
-3.4933056831359863 -2.2355000972747803 24.537139892578125
-9.51666259765625 -0.9094493985176086 13.682793617248535
25.204626083374023 -3.37518310546875 -31.409730911254883
-1.9816447496414185 -1.8381843566894531 25.178133010864258
-2.7133889198303223 -1.8846850395202637 26.273313522338867
24.889732360839844 -3.8450331687927246 -30.881582260131836
-10.03009033203125 -2.882483720779419 13.406513214111328
-9.609306335449219 -3.414018154144287 25.132715225219727
24.361812591552734 -4.346411228179932 -29.9955997467041
-9.541522026062012 -1.1235551834106445 13.682412147521973
23.77460479736328 -4.59645938873291 -29.009613037109375
-8.25839900970459 -3.0092310905456543 25.079885482788086
-8.510595798492432 -2.4721226692199707 25.68427276611328
-10.10214614868164 -3.0972113609313965 13.399436950683594
33.369083404541016 -0.35138747096061707 -20.30068016052246
-22.887678146362305 -2.0280513763427734 27.846574783325195
-21.337038040161133 -2.839264392852783 27.59772300720215
-22.541318893432617 -3.010648012161255 27.41477394104004
-9.571622848510742 -1.337188959121704 13.681941032409668
33.36039733886719 -0.4460102319717407 -20.298667907714844
-7.533298015594482 -2.7986812591552734 25.084714889526367
33.34977340698242 -0.5404341220855713 -20.296220779418945
-20.009235382080078 -2.655982494354248 27.70570182800293
-18.972511291503906 -3.37585711479187 27.237478256225586
-1.187137607485056 -1.7082161903381348 26.75468635559082
-10.261713027954102 -3.522582530975342 13.38375473022461
-31.55010414123535 -5.707431793212891 17.604740142822266
-3.953822135925293 -2.165597915649414 25.224742889404297
-19.103635787963867 -2.5339415073394775 27.730459213256836
-17.763442993164062 -3.160153865814209 27.271638870239258
-9.647497177124023 -1.762681007385254 13.680732727050781
-0.5099202394485474 -1.6308307647705078 27.83634376525879
0.43030571937561035 -1.609937310218811 30.543210983276367
0.011359453201293945 -1.3374801874160767 27.532068252563477
-21.161373138427734 -1.866607666015625 28.033588409423828
-9.65286636352539 -1.7888706922531128 13.680645942687988
-5.282593250274658 -2.3155341148376465 25.20012092590332
-18.12138557434082 -2.403974771499634 27.717649459838867
-9.65831470489502 -1.8150490522384644 13.680558204650879
-27.331127166748047 -6.213947772979736 22.563146591186523
-0.8071967959403992 -1.7368719577789307 27.985322952270508
-9.669448852539062 -1.8673704862594604 13.680378913879395
-16.544434547424316 -2.1999614238739014 27.620500564575195
-14.929828643798828 -2.672900676727295 27.127466201782227
-9.692667961120605 -1.9718682765960693 13.680004119873047
-17.873815536499023 -1.5748465061187744 27.999338150024414
0.31266987323760986 -2.002026081085205 32.4743709564209
0.8598824739456177 -1.8683148622512817 34.65773963928223
0.95285964012146 -1.3408619165420532 31.624826431274414
0.4497034549713135 -2.2308452129364014 34.62509346008301
-0.026659846305847168 -2.533601999282837 34.58755683898926
0.6841635704040527 -1.4179832935333252 30.55528450012207
-14.673697471618652 -1.9643877744674683 27.398860931396484
-11.394535064697266 -2.093322992324829 26.600109100341797
0.10055267810821533 -2.119378089904785 32.45720863342285
-9.742895126342773 -2.180245876312256 13.679189682006836
-12.824143409729004 -1.7373827695846558 27.082355499267578
-0.19949549436569214 -2.2537522315979004 32.43305206298828
-0.556460976600647 -2.7687723636627197 34.54616355895996
-1.3214492350816727 -2.9670073986053467 34.486833572387695
-9.769898414611816 -2.284104347229004 13.678750038146973
-14.251730918884277 -1.2711583375930786 27.519697189331055
-12.235370635986328 -6.839884281158447 12.488354682922363
-9.798157691955566 -2.387728214263916 13.678289413452148
23.16850471496582 -4.56689977645874 -27.991533279418945
-11.088168144226074 -1.5294692516326904 26.731515884399414
-10.631909370422363 -4.335392475128174 13.347332000732422
-9.858433723449707 -2.5942296981811523 13.677302360534668
-9.925235748291016 -2.804314374923706 13.676206588745117
-2.6678546667099 -1.7418349981307983 27.790861129760742
-10.84541130065918 -4.7314653396606445 13.326309204101562
-1.3399117290973663 -2.2413229942321777 31.008817672729492
-1.228904239833355 -1.9953017234802246 29.55320930480957
-1.5611386001110077 -2.0016393661499023 29.549575805664062
-10.894038200378418 -1.0030169486999512 26.826753616333008
-9.856016159057617 -1.3870588541030884 26.538116455078125
-9.99722671508789 -3.0131943225860596 13.675021171569824
-11.077393531799316 -5.119779586791992 13.303457260131836
-2.0727776885032654 -1.9513115882873535 29.53412628173828
-11.088555335998535 -5.137527942657471 13.30235767364502
-5.303382873535156 -1.3421589136123657 26.582780838012695
-5.453226566314697 -1.6038464307785034 26.273332595825195
-6.492403984069824 -1.4839988946914673 26.256864547729492
-10.156648635864258 -3.426980972290039 13.67238712310791
22.752944946289062 -4.376854419708252 -27.293344497680664
-2.511216640472412 -2.271972894668579 31.700986862182617
-3.2431135177612305 -2.8639674186706543 34.33848762512207
-2.738903760910034 -2.9729669094085693 34.37745475769043
1.2455990314483643 -0.4751252830028534 30.000288009643555
-2.7131881713867188 -2.2123396396636963 31.685749053955078
-13.622162818908691 -8.182405471801758 12.202921867370605
-3.012487769126892 -1.6463229656219482 29.50511360168457
-7.349745273590088 -0.3323505222797394 26.636287689208984
-2.9091075658798218 -2.1417670249938965 31.670940399169922
34.691070556640625 -0.3918009102344513 -14.938677787780762
-6.259769916534424 -0.45501500368118286 26.7784423828125
-7.09570837020874 -0.4869970977306366 26.63347816467285
-10.526496887207031 -4.217652797698975 13.666242599487305
-3.2403008937835693 -1.8303965330123901 31.084537506103516
-3.230975866317749 -1.6025314331054688 30.060901641845703
1.191436529159546 -0.7019894123077393 30.25320053100586
-3.2571306228637695 -2.243668556213379 32.483184814453125
-4.1950342655181885 -2.463071584701538 34.26190376281738
0.7937964200973511 -0.9280124306678772 28.767854690551758
-3.2898874282836914 -1.963104009628296 31.6409912109375
-3.496255397796631 -1.9565085172653198 31.977802276611328
1.4764366149902344 -0.41984233260154724 31.97522735595703
-3.514547824859619 -1.7817522287368774 31.484668731689453
-3.5835537910461426 -1.4578168392181396 30.568979263305664
0.236189603805542 -1.1753019094467163 27.506498336791992
-4.090350866317749 -0.7993685007095337 28.389339447021484
-4.115707874298096 -0.5922003388404846 28.78197479248047
-3.9021756649017334 -0.8917298316955566 29.15877914428711
-3.8021202087402344 -1.0896193981170654 28.541610717773438
1.106243371963501 -0.860499382019043 30.249832153320312
-3.7635467052459717 -1.8955680131912231 32.275596618652344
-4.89345383644104 -1.9261268377304077 34.1982479095459
-4.053695917129517 -1.6587873697280884 32.24782943725586
-4.051185369491577 -1.2093168497085571 31.239282608032227
0.6803469657897949 -1.0611017942428589 28.771026611328125
-5.352129936218262 -1.3357566595077515 34.14788627624512
30.907970428466797 -3.7204511165618896 -11.251212120056152
30.7401123046875 -3.1781160831451416 -10.239076614379883
31.78884506225586 -3.405238389968872 -11.541887283325195
1.4224557876586914 -0.6110159158706665 31.970962524414062
31.747310638427734 -3.6548874378204346 -11.950165748596191
31.30532455444336 -3.9486470222473145 -12.084654808044434
30.82317352294922 -4.188868999481201 -12.231374740600586
30.51094627380371 -4.552456378936768 -13.169333457946777
31.185142517089844 -4.5300211906433105 -13.88391399383545
30.009960174560547 -4.791152000427246 -14.057938575744629
30.992481231689453 -4.320577144622803 -12.774829864501953
29.92687225341797 -4.4102253913879395 -12.358094215393066
24.495716094970703 -1.194481372833252 -2.680957555770874
25.484691619873047 -0.7368525862693787 -3.30318021774292
25.64657974243164 -1.0734213590621948 -3.518681049346924
29.68355369567871 -3.7274253368377686 -10.55236530303955
28.54467010498047 -3.213557004928589 -8.508757591247559
1.0042085647583008 -1.0131564140319824 30.24584197998047
28.583845138549805 -3.9298248291015625 -10.97884464263916
28.304088592529297 -3.4664320945739746 -9.020051956176758
23.693769454956055 -0.8598979115486145 -2.0886008739471436
29.689144134521484 -4.135242938995361 -11.518463134765625
-10.739795684814453 -4.602936744689941 13.66268539428711
1.3487904071807861 -0.7978811860084534 31.965072631835938
29.473352432250977 -4.452305793762207 -12.434249877929688
23.90900230407715 -1.2539732456207275 -2.3124940395355225
22.286033630371094 -1.8246783018112183 -1.6212444305419922
23.992839813232422 -1.4369744062423706 -2.422370433807373
29.14360809326172 -4.520274639129639 -12.74352741241455
28.796573638916016 -4.761856555938721 -14.23774528503418
-12.209524154663086 -6.613428592681885 13.191840171813965
28.42174530029297 -4.528123378753662 -13.321938514709473
0.506394624710083 -1.2273902893066406 28.776002883911133
28.206785202026367 -4.374221324920654 -12.903166770935059
24.162004470825195 -1.7443816661834717 -2.6504125595092773
24.477140426635742 -2.3078250885009766 -3.1716370582580566
1.4516301155090332 -0.7240474224090576 32.85293197631836
22.72474479675293 -2.5953643321990967 -2.2141292095184326
1.4392516613006592 -1.003007411956787 34.704580307006836
28.660064697265625 -4.298047065734863 -12.179353713989258
1.1256849765777588 -1.1257948875427246 31.63738250732422
28.509288787841797 -4.205716609954834 -11.974799156188965
27.950485229492188 -3.9114296436309814 -11.430814743041992
1.3341903686523438 -0.9891527891159058 32.84283256530762
20.311023712158203 -0.6873472332954407 -0.6423112154006958
1.1927852630615234 -1.455422043800354 34.68453025817871
21.299747467041016 -1.2910345792770386 -1.0555319786071777
20.270614624023438 -1.970932126045227 -0.9435688257217407
-10.97155475616455 -4.980672836303711 13.658812522888184
23.87508201599121 -2.9220733642578125 -3.1741108894348145
24.95108413696289 -3.1170907020568848 -4.278493881225586
22.99922752380371 -3.1371304988861084 -2.759004592895508
21.22002601623535 -3.5486643314361572 -2.1798412799835205
21.793560028076172 -2.7075014114379883 -1.823423147201538
-10.982706069946289 -4.9979376792907715 13.658626556396484
18.784364700317383 -1.0603830814361572 -0.39743971824645996
19.288036346435547 -1.3790119886398315 -0.5447070598602295
18.253253936767578 -2.08506441116333 -0.6246660947799683
18.21161651611328 -0.7301202416419983 -0.2814972400665283
27.4466552734375 -3.67560076713562 -9.665148735046387
26.07648468017578 -3.80854868888855 -8.485147476196289
23.126354217529297 -3.3778092861175537 -3.0575308799743652
27.22431755065918 -3.675208806991577 -9.959636688232422
26.780447006225586 -3.562793493270874 -10.536746978759766
26.086286544799805 -3.4624288082122803 -10.306845664978027
17.648513793945312 -1.0896464586257935 -0.2993896007537842
23.507938385009766 -3.860353469848633 -3.9142909049987793
34.41389083862305 -0.38809484243392944 -13.408120155334473
23.808696746826172 -3.948593854904175 -4.330958843231201
22.094079971313477 -4.559484004974365 -3.89860200881958
25.53037452697754 -3.2973296642303467 -5.1657843589782715
22.777231216430664 -3.805912494659424 -3.2798171043395996
23.977739334106445 -4.140172958374023 -4.893127918243408
25.79741668701172 -3.63360857963562 -6.2678375244140625
24.266206741333008 -4.348631381988525 -6.057915687561035
22.473506927490234 -4.9314656257629395 -5.291547775268555
17.11127281188965 -1.4518707990646362 -0.3659919500350952
16.04762077331543 -2.1768364906311035 -0.6437736749649048
16.52802085876465 -1.1143264770507812 -0.29718947410583496
34.4046516418457 -0.48669829964637756 -13.40941333770752
15.902746200561523 -0.7659863829612732 -0.2739931344985962
34.68145751953125 -0.4926227927207947 -14.93913459777832
-13.593926429748535 -7.9113850593566895 13.055231094360352
26.858257293701172 -3.47892689704895 -11.443377494812012
27.697895050048828 -4.219310283660889 -13.06745719909668
26.736291885375977 -3.4031734466552734 -12.26539421081543
15.33145523071289 -1.1363544464111328 -0.3925246000289917
-12.102575302124023 -6.433626174926758 13.639836311340332
26.569856643676758 -3.352722406387329 -11.30567455291748
-3.6875686645507812 -1.1941730976104736 28.53512954711914
-3.9247243404388428 -1.1659462451934814 27.918773651123047
25.833805084228516 -2.7315938472747803 -11.749736785888672
20.666948318481445 -4.308708190917969 -2.724773406982422
20.147802352905273 -4.957472324371338 -3.448415756225586
19.31047248840332 -3.788148880004883 -1.7899363040924072
14.13322639465332 -1.518509030342102 -0.6754602193832397
13.555145263671875 -3.2679824829101562 -1.6576647758483887
11.934286117553711 -2.294727325439453 -1.3915276527404785
15.62272834777832 -3.1880359649658203 -1.225294828414917
13.188066482543945 -1.1681071519851685 -0.7601333856582642
25.174190521240234 -3.7347917556762695 -9.357633590698242
24.373624801635742 -3.258824586868286 -10.226550102233887
24.462739944458008 -4.32663631439209 -7.439453125
24.00340461730957 -4.246487140655518 -8.427149772644043
11.72806453704834 -0.8143031001091003 -0.9663701057434082
34.393348693847656 -0.585095226764679 -13.411012649536133
18.4062557220459 -4.3916778564453125 -2.2257394790649414
17.38096046447754 -3.9725499153137207 -1.7368762493133545
-3.698721170425415 -1.132822036743164 29.157974243164062
18.895357131958008 -4.565677165985107 -2.5054001808166504
18.52611541748047 -5.217716217041016 -3.3968443870544434
34.66969680786133 -0.5932341814041138 -14.939718246459961
10.455946922302246 -1.2173830270767212 -1.2913398742675781
17.06201934814453 -4.767533779144287 -2.6002323627471924
17.567129135131836 -4.942448616027832 -2.8466603755950928
16.805837631225586 -5.426499843597412 -3.6471405029296875
25.264297485351562 -2.8931095600128174 -10.980996131896973
34.364585876464844 -0.7811034321784973 -13.415128707885742
25.625675201416016 -2.404669761657715 -11.983997344970703
16.294727325439453 -4.587783336639404 -2.4179539680480957
14.676786422729492 -4.142644882202148 -2.185558795928955
-3.892611265182495 -0.9253484606742859 29.64021873474121
25.047637939453125 -2.8416311740875244 -10.941821098327637
24.595813751220703 -2.7461025714874268 -10.879901885986328
34.63974380493164 -0.793655276298523 -14.941266059875488
-13.485597610473633 -7.696207523345947 13.616535186767578
10.56541919708252 -1.9728918075561523 -1.5145835876464844
10.900352478027344 -3.393411636352539 -2.2817800045013428
34.3625373840332 -0.7931694388389587 -13.415422439575195
15.777809143066406 -4.872467517852783 -2.8498313426971436
-3.9200680255889893 -0.9556577801704407 30.027076721191406
34.637611389160156 -0.8059930801391602 -14.941377639770508
9.922351837158203 -1.805364727973938 -1.5757336616516113
23.00571060180664 -4.370850563049316 -8.635250091552734
21.763992309570312 -4.874678134918213 -8.19314193725586
22.412588119506836 -4.811698913574219 -7.89516544342041
22.09049415588379 -4.350574016571045 -9.022514343261719
-4.064075946807861 -0.7067532539367676 30.01825714111328
34.3604621887207 -0.8052303194999695 -13.41572093963623
8.812734603881836 -1.7163997888565063 -1.7656564712524414
9.461459159851074 -2.3082966804504395 -1.8821508884429932
34.63544845581055 -0.8183255791664124 -14.941492080688477
8.664016723632812 -3.3039798736572266 -2.6464967727661133
-4.1265270709991455 -0.44668102264404297 29.205385208129883
14.886322021484375 -5.163529872894287 -3.4755125045776367
15.219446182250977 -6.052316188812256 -5.453617095947266
13.29322338104248 -5.709773540496826 -4.885095119476318
12.872049331665039 -4.5252838134765625 -3.006892204284668
34.35621643066406 -0.8293364644050598 -13.416332244873047
-4.118633031845093 -0.7303502559661865 30.39379119873047
34.63102722167969 -0.8429746031761169 -14.941725730895996
8.128975868225098 -1.6552162170410156 -1.884946584701538
6.897894859313965 -1.527436375617981 -2.1067442893981934
-4.123238563537598 -0.4615352749824524 29.62436866760254
13.891526222229004 -4.989595890045166 -3.4255027770996094
34.347347259521484 -0.8774836659431458 -13.417611122131348
34.62179183959961 -0.8922063708305359 -14.942216873168945
-4.1899731159210205 -0.7539544701576233 30.748201370239258
12.049034118652344 -4.722269058227539 -3.426772117614746
-4.1591408252716064 -0.4783686101436615 30.04999542236328
10.865265846252441 -4.721611976623535 -3.6501898765563965
34.328121185302734 -0.9735010266304016 -13.420388221740723
-4.282381057739258 -0.7798010110855103 31.11817741394043
8.70563793182373 -4.728323459625244 -4.022983551025391
34.60176467895508 -0.9903869032859802 -14.943290710449219
22.51711082458496 -3.168649435043335 -10.266826629638672
23.70746612548828 -2.919708251953125 -10.526274681091309
23.077959060668945 -2.1547317504882812 -10.984221458435059
21.418779373168945 -3.3476829528808594 -10.314648628234863
22.021177291870117 -2.4597432613372803 -10.778093338012695
-4.536750555038452 -0.9365379810333252 32.04296875
-5.609288692474365 -0.7496930956840515 34.11256217956543
-4.378363609313965 -0.5232220888137817 31.105539321899414
34.31776428222656 -1.021361231803894 -13.42188835144043
7.5858306884765625 -3.224734306335449 -2.7967395782470703
7.448783874511719 -4.6607890129089355 -4.129599094390869
34.59097671508789 -1.0393255949020386 -14.943873405456543
10.914970397949219 -5.295114517211914 -4.490826606750488
8.96303939819336 -5.5349249839782715 -5.158839225769043
8.807826042175293 -5.253548622131348 -4.7269606590271
9.924118041992188 -6.3364338874816895 -6.797538757324219
-4.274365425109863 -0.3322662115097046 30.49750518798828
34.306915283203125 -1.0691158771514893 -13.423460960388184
7.089503288269043 -3.183610677719116 -2.864492416381836
34.579673767089844 -1.0881564617156982 -14.944486618041992
-4.494051933288574 -0.5420309901237488 31.49001693725586
-4.409657955169678 -0.3496818542480469 31.060962677001953
23.120389938354492 -1.0939592123031616 -11.415735244750977
24.69563865661621 -0.8724915385246277 -12.129040718078613
21.746522903442383 -1.7141053676605225 -11.12912654876709
-4.736700057983398 -0.31435710191726685 32.01590347290039
24.89512062072754 -1.6907175779342651 -11.900870323181152
6.27341365814209 -3.944554090499878 -3.5988731384277344
5.30972146987915 -3.108717203140259 -3.170949935913086
6.435765266418457 -3.159569263458252 -2.976325035095215
25.556467056274414 -3.8796350955963135 -28.866085052490234
26.768077850341797 -3.535456657409668 -27.522451400756836
27.075176239013672 -3.237032413482666 -27.878231048583984
5.3765950202941895 -4.501286506652832 -4.24187707901001
25.942890167236328 -3.979039192199707 -26.565671920776367
8.238730430603027 -5.729964733123779 -5.560545921325684
8.4307861328125 -6.6953864097595215 -7.709874153137207
24.867197036743164 -4.219303131103516 -27.872570037841797
34.28373336791992 -1.1642886400222778 -13.426826477050781
25.276161193847656 -4.035663604736328 -25.79207420349121
34.55552291870117 -1.1854746341705322 -14.945804595947266
4.890540599822998 -3.5618374347686768 -3.5485148429870605
4.507510662078857 -2.5162148475646973 -3.0419931411743164
4.19516134262085 -4.768496990203857 -4.6238603591918945
4.120917797088623 -3.9304468631744385 -3.9482569694519043
4.079124450683594 -3.3293397426605225 -3.567145347595215
24.24456024169922 -4.235391139984131 -26.974594116210938
34.25799560546875 -1.2611230611801147 -13.430570602416992
34.528709411621094 -1.2844923734664917 -14.947277069091797
24.898828506469727 -3.956739664077759 -25.354110717773438
7.891435623168945 -5.830333709716797 -5.759727954864502
23.85430145263672 -4.109333515167236 -26.411579132080078
11.524886131286621 -6.7597503662109375 -8.511534690856934
12.897148132324219 -6.80573034286499 -9.964847564697266
12.03803825378418 -6.931090354919434 -10.448866844177246
22.095346450805664 -3.7276828289031982 -26.176759719848633
21.414936065673828 -4.031185626983643 -26.806978225708008
21.571027755737305 -2.7326319217681885 -25.284948348999023
12.652701377868652 -6.664738178253174 -8.30499267578125
12.544073104858398 -6.519480228424072 -7.501692771911621
22.416227340698242 -3.597707748413086 -25.843454360961914
7.164916038513184 -5.910946846008301 -5.9302449226379395
23.42375946044922 -3.7207653522491455 -25.524980545043945
10.963905334472656 -6.808111190795898 -8.595964431762695
22.719465255737305 -3.5043835639953613 -25.536596298217773
18.1289119720459 -4.800374507904053 -11.56682014465332
19.24176788330078 -3.8558030128479004 -11.311308860778809
18.508358001708984 -3.9924702644348145 -12.112645149230957
22.527267456054688 -3.212653875350952 -25.22435760498047
17.820098876953125 -4.097416877746582 -13.179059028625488
22.198711395263672 -2.528909206390381 -24.687257766723633
17.67656898498535 -5.470638751983643 -10.867990493774414
18.63835334777832 -5.295878887176514 -9.968184471130371
22.750450134277344 -2.4194552898406982 -24.103111267089844
34.23021697998047 -1.357412338256836 -13.43461799621582
34.49976348876953 -1.3829532861709595 -14.94887638092041
7.566071510314941 -6.215452194213867 -6.5007100105285645
23.712383270263672 -3.4284965991973877 -24.663196563720703
6.934206008911133 -6.922633171081543 -8.093832969665527
10.135435104370117 -6.891811370849609 -8.749584197998047
8.522988319396973 -7.067267894744873 -8.982306480407715
24.572288513183594 -3.5495495796203613 -24.022058486938477
17.452436447143555 -4.901744365692139 -12.523116111755371
17.008769989013672 -5.562593936920166 -11.70081615447998
25.39615821838379 -3.7621355056762695 -23.670398712158203
23.916967391967773 -3.247434377670288 -24.0606689453125
16.865222930908203 -4.211441516876221 -14.800381660461426
24.256155014038086 -2.9227724075317383 -22.86507225036621
20.76137924194336 -1.6319758892059326 -25.049880981445312
6.189947605133057 -6.212579727172852 -6.455286979675293
6.58704137802124 -5.712536334991455 -5.623227596282959
5.809996128082275 -6.093194961547852 -6.234845161437988
5.561583518981934 -5.240130424499512 -5.027285575866699
4.687495708465576 -6.384509086608887 -6.623462677001953
6.158205986022949 -6.414693832397461 -6.828997611999512
6.091625690460205 -6.792104721069336 -7.609031677246094
33.28379440307617 -2.54144287109375 -12.497349739074707
33.76376724243164 -1.5024446249008179 -12.345049858093262
33.94227600097656 -2.090590000152588 -13.476778984069824
32.94990158081055 -2.1257665157318115 -11.446091651916504
33.852115631103516 -2.264890432357788 -13.490022659301758
16.39114761352539 -5.256369113922119 -13.505187034606934
15.964380264282227 -6.125974178314209 -11.252835273742676
33.847774505615234 -2.272857904434204 -13.490660667419434
33.41117477416992 -2.935696601867676 -13.55493450164795
21.209625244140625 -1.4273200035095215 -24.688854217529297
15.126455307006836 -5.80724573135376 -13.74050521850586
16.070247650146484 -5.075306415557861 -14.392186164855957
25.20728302001953 -3.4859025478363037 -22.645099639892578
28.273839950561523 -0.3826773464679718 -28.91836166381836
34.1685791015625 -1.548189640045166 -13.44361686706543
5.292684555053711 -7.106544494628906 -8.157005310058594
6.39732027053833 -7.31847620010376 -9.115189552307129
26.30821418762207 -3.896970510482788 -22.333650588989258
5.131979942321777 -7.86199951171875 -10.425065040588379
21.666515350341797 -1.5049628019332886 -24.394149780273438
22.498315811157227 -1.6600825786590576 -23.73138999938965
34.4355354309082 -1.57803475856781 -14.9524507522583
7.489020347595215 -7.492362022399902 -10.418461799621582
8.695525169372559 -7.475043773651123 -11.69504451751709
32.82516098022461 -2.682934045791626 -11.873198509216309
32.05356216430664 -2.4164955615997314 -10.5734281539917
5.3657097816467285 -8.139094352722168 -12.540492057800293
31.72945785522461 -2.867522716522217 -10.714312553405762
15.910371780395508 -4.853870868682861 -15.070016860961914
15.557710647583008 -4.3551554679870605 -16.379667282104492
32.82246780395508 -3.147526502609253 -12.604549407958984
34.02516174316406 -1.9128435850143433 -13.464616775512695
34.286075592041016 -1.9509227275848389 -14.960856437683105
14.966022491455078 -5.437576770782471 -14.986957550048828
14.107620239257812 -5.943851947784424 -14.60158634185791
32.87077331542969 -3.519170045852661 -13.634665489196777
34.19969177246094 -2.132685661315918 -14.965750694274902
32.72399139404297 -2.9479308128356934 -12.088932991027832
15.367170333862305 -5.16218900680542 -15.132976531982422
32.47682571411133 -3.2265207767486572 -12.154881477355957
4.901829242706299 -7.2688727378845215 -8.426011085510254
3.7536215782165527 -7.912595748901367 -9.619193077087402
3.7324604988098145 -7.46475887298584 -8.41555404663086
32.46116638183594 -3.5063984394073486 -12.685256004333496
28.27235984802246 -0.40321820974349976 -28.916746139526367
3.781576156616211 -6.673591613769531 -6.922954082489014
32.24119567871094 -4.007957458496094 -13.72768783569336
3.807368755340576 -5.714141368865967 -5.613201141357422
24.98758316040039 -3.180321216583252 -21.9560604095459
24.567522048950195 -2.374570846557617 -20.744598388671875
14.876249313354492 -5.222475051879883 -15.593254089355469
32.20842742919922 -3.4832897186279297 -12.226506233215332
10.271513938903809 -7.16832160949707 -13.640210151672363
11.655847549438477 -6.978587627410889 -12.43928050994873
11.450804710388184 -6.934348106384277 -13.444552421569824
25.347196578979492 -3.3332414627075195 -21.450037002563477
28.270811080932617 -0.4237476587295532 -28.91505241394043
12.451712608337402 -6.339904308319092 -15.184823989868164
13.10832405090332 -6.660371780395508 -12.622349739074707
34.1057243347168 -2.310926914215088 -14.971095085144043
26.063228607177734 -3.694700002670288 -20.41012954711914
9.673810958862305 -7.2872419357299805 -13.714138984680176
25.499980926513672 -3.377692937850952 -21.038043975830078
11.568971633911133 -6.544618606567383 -15.415311813354492
10.656837463378906 -6.753708362579346 -15.606243133544922
27.317638397216797 -4.358780384063721 -18.942502975463867
34.101200103759766 -2.3190746307373047 -14.971353530883789
11.60310173034668 -5.905256748199463 -17.2740478515625
18.08062171936035 -1.1221132278442383 -15.102460861206055
18.41408348083496 -2.1576597690582275 -13.805363655090332
17.838321685791016 -2.2099435329437256 -15.144039154052734
28.26750373840332 -0.4647700786590576 -28.911426544189453
8.77207088470459 -7.467840671539307 -13.79611873626709
3.2646212577819824 -7.088144779205322 -7.452183723449707
31.659420013427734 -3.9906394481658936 -12.611054420471191
2.8087124824523926 -7.4848737716674805 -7.9681901931762695
2.990237236022949 -6.584552764892578 -6.544590950012207
3.340278148651123 -8.086224555969238 -9.86979866027832
14.198305130004883 -5.1044840812683105 -16.576662063598633
25.15373420715332 -3.0806972980499268 -20.927181243896484
24.776058197021484 -2.4541375637054443 -19.974016189575195
9.393854141235352 -7.2746734619140625 -14.437271118164062
23.46590805053711 -1.5793081521987915 -22.35625648498535
8.76657772064209 -7.184557914733887 -15.873321533203125
24.13705062866211 -1.6175806522369385 -20.75206184387207
13.448434829711914 -5.465587615966797 -16.583904266357422
11.758485794067383 -5.6283159255981445 -17.745338439941406
28.263832092285156 -0.5066694617271423 -28.907392501831055
27.62266731262207 -0.9447820782661438 -5.227323532104492
12.631696701049805 -4.829423427581787 -18.447940826416016
29.16199493408203 -1.473265290260315 -6.9413018226623535
27.825265884399414 -1.7867282629013062 -5.85296630859375
8.41016960144043 -7.505527496337891 -14.291709899902344
7.637420654296875 -7.561680316925049 -15.275396347045898
33.64612579345703 -2.996920108795166 -14.997434616088867
26.812618255615234 -0.6698464751243591 -4.4213547706604
17.736404418945312 -1.138374924659729 -15.940683364868164
17.449426651000977 -1.5202299356460571 -16.36017608642578
16.743619918823242 -2.28796648979187 -17.06441879272461
4.460691928863525 -8.131532669067383 -11.078786849975586
25.855880737304688 -3.5320937633514404 -19.508331298828125
14.20057487487793 -4.581422805786133 -17.474201202392578
28.259868621826172 -0.5485098958015442 -28.90302848815918
13.606422424316406 -3.3580195903778076 -19.42054557800293
14.918846130371094 -3.472463369369507 -18.178058624267578
4.217622756958008 -8.20962905883789 -11.220263481140137
26.55000877380371 -1.0038907527923584 -4.2784600257873535
17.2130069732666 -1.1597213745117188 -16.92044448852539
25.96323013305664 -3.618900775909424 -19.055191040039062
9.747918128967285 -6.528518199920654 -17.24787139892578
28.251070022583008 -0.6319956183433533 -28.893308639526367
10.720199584960938 -5.687189102172852 -18.420772552490234
33.08281326293945 -3.593634843826294 -15.02996826171875
16.988435745239258 -0.788540780544281 -17.38068199157715
25.51919937133789 -3.2435967922210693 -19.382644653320312
24.938352584838867 -2.5622949600219727 -19.164121627807617
25.165822982788086 -2.789870262145996 -17.535995483398438
16.648744583129883 -1.180194616317749 -17.75519371032715
16.3159236907959 -1.5730034112930298 -18.03186798095703
15.55364990234375 -2.360938310623169 -18.4625301361084
32.42650604248047 -4.093547821044922 -15.068063735961914
26.656038284301758 -4.1177754402160645 -17.806711196899414
27.76921844482422 -4.631627559661865 -17.04828643798828
2.8259332180023193 -8.576045036315918 -11.409612655639648
2.5050125122070312 -8.444212913513184 -10.354022979736328
2.222761392593384 -8.545421600341797 -10.419815063476562
28.230531692504883 -0.7942100763320923 -28.870534896850586
1.7842183113098145 -9.027424812316895 -13.083935737609863
2.167842388153076 -8.920418739318848 -13.007198333740234
25.992958068847656 -3.6610145568847656 -18.274879455566406
25.96745491027832 -3.611614465713501 -16.855180740356445
9.322404861450195 -6.473964214324951 -17.736642837524414
7.927367210388184 -7.158815860748291 -16.85404396057129
8.409809112548828 -5.81437873840332 -19.6627140045166
26.813650131225586 -4.212988376617432 -16.94547462463379
16.06653594970703 -1.199625849723816 -18.468839645385742
27.207815170288086 -4.40858793258667 -16.415225982666016
4.725743770599365 -8.181015968322754 -15.642824172973633
5.536044597625732 -8.140498161315918 -13.8514986038208
5.700771808624268 -7.9678754806518555 -15.550708770751953
27.967817306518555 -4.664244651794434 -15.329019546508789
26.929588317871094 -4.253480911254883 -16.12906837463379
28.218610763549805 -0.8748189806938171 -28.857276916503906
8.18730640411377 -6.571495532989502 -18.329063415527344
5.974440097808838 -7.017467021942139 -18.737207412719727
6.122786045074463 -6.35857629776001 -19.96061897277832
29.672792434692383 -2.509371042251587 -8.370087623596191
15.733013153076172 -0.8181101083755493 -18.933250427246094
28.880878448486328 -2.476325273513794 -7.5624895095825195
14.116316795349121 -2.435678005218506 -19.714550018310547
26.30004119873047 -2.779266834259033 -5.293169021606445
31.325572967529297 -4.627559185028076 -15.132238388061523
27.964460372924805 -4.565396785736084 -14.361104965209961
15.318756103515625 -1.2229022979736328 -19.238862991333008
28.205595016479492 -0.9550514221191406 -28.8427791595459
5.848454475402832 -7.590470790863037 -17.193279266357422
3.7084617614746094 -8.051651954650879 -17.40296173095703
3.714935779571533 -7.768747806549072 -18.280731201171875
26.676870346069336 -4.0684123039245605 -15.685766220092773
25.362781524658203 -2.8793139457702637 -16.06859588623047
14.34534740447998 -1.9608043432235718 -19.793371200561523
26.196428298950195 -3.594087600708008 -14.91003131866455
11.872004508972168 -3.8280811309814453 -20.182235717773438
11.401629447937012 -4.919865131378174 -19.205318450927734
28.204967498779297 -0.9587498307228088 -28.842079162597656
27.020061492919922 -4.221248149871826 -15.096843719482422
14.58332347869873 -1.3208200931549072 -19.85846710205078
30.100400924682617 -4.89477014541626 -15.203903198242188
13.297301292419434 -2.4762299060821533 -20.29475975036621
12.899298667907715 -1.5274615287780762 -20.99652671813965
28.141117095947266 -1.2784621715545654 -28.770748138427734
12.076993942260742 -3.2353672981262207 -20.566810607910156
27.45904541015625 -3.36515474319458 -7.803265571594238
10.92499828338623 -4.072714328765869 -20.505521774291992
10.320570945739746 -3.1020491123199463 -21.613332748413086
8.601482391357422 -5.121537208557129 -20.554412841796875
9.478326797485352 -4.143500328063965 -21.191486358642578
12.37154769897461 -2.677809715270996 -20.773723602294922
11.778200149536133 -1.561832070350647 -21.63446617126465
14.001605987548828 -0.7653020620346069 -20.448274612426758
29.569522857666016 -1.6686888933181763 -26.064319610595703
12.95695686340332 -1.0318034887313843 -21.10081672668457
27.03600311279297 -4.173648834228516 -14.65546989440918
1.3713164329528809 -1.4687800407409668 -0.9394276142120361
1.824402093887329 -1.2174489498138428 -1.3751060962677002
1.8121490478515625 -1.3322739601135254 -1.3879547119140625
27.80684471130371 -4.356598377227783 -13.479527473449707
28.835365295410156 -4.865005970001221 -15.278076171875
1.4117777347564697 -2.1568830013275146 -1.208005666732788
27.40755271911621 -2.7958595752716064 -28.26300048828125
1.7987935543060303 -1.4469622373580933 -1.4019560813903809
1.798149824142456 -1.4522591829299927 -1.4026310443878174
1.7327585220336914 -1.9141783714294434 -1.471156120300293
1.6495780944824219 -2.3724701404571533 -1.5582847595214844
1.3228495121002197 -1.8138033151626587 -0.9876668453216553
28.73723602294922 -2.412493944168091 -26.591899871826172
1.3179051876068115 -2.613903522491455 -1.30291748046875
1.5487768650054932 -2.8264596462249756 -1.6638410091400146
1.3681764602661133 -3.4873173236846924 -1.8529155254364014
1.1455869674682617 -4.147826671600342 -2.085904121398926
1.2630019187927246 -2.163762331008911 -1.0472042560577393
27.35239028930664 -4.071174621582031 -13.179000854492188
3.440702438354492 -0.7995612025260925 -3.0382776260375977
32.04270553588867 -0.8449710011482239 -22.43979263305664
33.27877426147461 -0.9590767621994019 -20.280027389526367
33.28849792480469 -0.9131505489349365 -20.282236099243164
33.306556701660156 -0.8210127353668213 -20.286344528198242
0.6369556188583374 -6.285055637359619 -3.816603660583496
1.0838508605957031 -4.952351093292236 -2.7400214672088623
33.31887435913086 -0.7516782879829407 -20.289152145385742
33.320823669433594 -0.740104615688324 -20.289596557617188
26.827966690063477 -3.9109766483306885 -13.93984317779541
-1.9458491206169128 -10.051483154296875 -11.746326446533203
-0.9030870497226715 -9.634329795837402 -10.59453296661377
-1.360793024301529 -9.729156494140625 -10.191658020019531
33.32274627685547 -0.7285259962081909 -20.290035247802734
-1.5183262825012207 -9.526705741882324 -8.74505615234375
-0.7288840115070343 -9.214442253112793 -8.699301719665527
33.314884185791016 -0.7748106122016907 -20.28824234008789
-0.8750608563423157 -8.623941421508789 -6.5327348709106445
3.4377713203430176 -0.9820871949195862 -3.0600147247314453
27.10427474975586 -3.983173370361328 -13.433808326721191
26.404434204101562 -3.200298309326172 -12.77126693725586
32.02527618408203 -0.9304900765419006 -22.433216094970703
0.3198812007904053 -5.805574893951416 -2.817035436630249
-0.09234583377838135 -6.899940013885498 -3.8858251571655273
33.268585205078125 -1.0049015283584595 -20.277711868286133
24.34946632385254 -0.9768320918083191 -17.36582374572754
-2.1185285449028015 -9.91713809967041 -9.770679473876953
-1.5777887403964996 -9.769028663635254 -9.97210693359375
24.582406997680664 -1.8564807176589966 -18.198556900024414
-1.9319549798965454 -9.678316116333008 -8.746770858764648
-3.6974196434020996 -10.48486328125 -10.861710548400879
32.00623321533203 -1.0156124830245972 -22.426027297973633
20.7136287689209 -2.8233628273010254 -1.4778902530670166
24.497377395629883 -1.328650712966919 -16.76759910583496
-2.63132381439209 -10.227004051208496 -11.421887397766113
32.005313873291016 -1.0195363759994507 -22.42568016052246
24.893056869506836 -1.9870997667312622 -15.644853591918945
26.354827880859375 -3.4825642108917236 -13.782322883605957
25.53673553466797 -2.8156206607818604 -14.755038261413574
25.641578674316406 -2.6768276691436768 -13.95100212097168
25.66002082824707 -2.6414334774017334 -13.808219909667969
-1.1385285097640008 -8.68977165222168 -6.358441352844238
25.6925048828125 -2.5691215991973877 -13.555505752563477
25.70954704284668 -2.5254881381988525 -13.422212600708008
25.674652099609375 -2.6105241775512695 -13.694604873657227
28.578712463378906 -2.6639935970306396 -26.4536190032959
-2.5254557132720947 -9.702316284179688 -7.830707550048828
-2.9627259969711304 -10.32994556427002 -12.571842193603516
0.35126590728759766 -4.408437252044678 -1.4093680381774902
3.4382004737854004 -0.8078142404556274 -3.073206901550293
31.911766052246094 -1.3587613105773926 -22.390356063842773
28.405292510986328 -2.89736008644104 -26.302257537841797
-0.18949830532073975 -6.583227634429932 -3.277141571044922
-0.10633885860443115 -6.224068641662598 -2.8634796142578125
-2.1342657804489136 -9.692306518554688 -8.454839706420898
19.76089859008789 -2.913591146469116 -1.2639422416687012
3.4344325065612793 -0.9925591945648193 -3.095053195953369
-4.061105728149414 -10.468917846679688 -9.443531036376953
32.32044982910156 -1.3881745338439941 -21.68723487854004
33.13870620727539 -1.4646060466766357 -20.248310089111328
33.196571350097656 -1.2815439701080322 -20.261394500732422
-3.179558753967285 -10.3875732421875 -12.167425155639648
18.846281051635742 -2.990173578262329 -1.1346516609191895
33.222652435302734 -1.189147710800171 -20.26729965209961
33.24681854248047 -1.0962276458740234 -20.272775650024414
-3.316892147064209 -10.421608924865723 -12.047015190124512
24.492469787597656 -1.0112988948822021 -16.13828468322754
-5.222991943359375 -10.6826753616333 -14.194498062133789
-0.035323143005371094 -1.5071742534637451 0.5893030166625977
-1.4018669128417969 -2.983185291290283 1.513731062412262
28.21828269958496 -3.1108810901641846 -26.13895606994629
32.23944091796875 -1.6166383028030396 -21.661046981811523
32.42787170410156 -2.795921802520752 -20.088241577148438
32.83759689331055 -2.159945249557495 -20.18041229248047
-1.355763390660286 -8.519405364990234 -5.608546733856201
32.841670989990234 -2.1523003578186035 -20.18132972717285
32.92628860473633 -1.9850575923919678 -20.200389862060547
-3.459188938140869 -10.452884674072266 -11.6615571975708
17.753931045532227 -3.0693869590759277 -1.0731289386749268
33.004085540771484 -1.8145062923431396 -20.217926025390625
29.80438804626465 -2.6265625953674316 -24.487014770507812
31.92078399658203 -3.355714797973633 -19.974323272705078
24.497407913208008 -0.6756409406661987 -15.705835342407227
28.018808364868164 -3.3033065795898438 -25.964702606201172
-0.5576747059822083 -6.365421295166016 -2.528388261795044
27.704648971557617 -3.5459635257720947 -25.69015121459961
-0.9373684972524643 -6.966629981994629 -2.980353832244873
-1.7994443774223328 -8.07768726348877 -3.993234157562256
24.6351375579834 -1.0067182779312134 -15.271146774291992
29.404508590698242 -3.0944018363952637 -24.241043090820312
24.779367446899414 -1.3232002258300781 -14.952789306640625
25.127647399902344 -1.890601634979248 -14.326146125793457
31.33005142211914 -3.824629545211792 -19.841733932495117
-0.514263927936554 -2.4780731201171875 0.7767052054405212
-0.10552322864532471 -2.226270914077759 0.4315415620803833
-1.7669593691825867 -4.387317180633545 0.9936261512339115
-4.496092319488525 -10.686053276062012 -12.520336151123047
-5.596723556518555 -10.869657516479492 -13.095867156982422
23.75120735168457 -4.586783409118652 -6.219933986663818
22.76834487915039 -4.939282417297363 -6.711721420288086
-0.6066709160804749 -4.493471145629883 -0.40216004848480225
34.32938766479492 -0.8417771458625793 -17.790122985839844
16.766782760620117 -3.130051374435425 -1.1003327369689941
-2.6820884943008423 -9.475080490112305 -6.664657115936279
-2.160735607147217 -9.013449668884277 -5.887788772583008
-3.776165723800659 -10.229596138000488 -8.315357208251953
-5.405045032501221 -10.327037811279297 -16.197614669799805
-6.771578788757324 -9.89317512512207 -18.10474395751953
22.168563842773438 -5.018370151519775 -5.190604209899902
-2.750117540359497 -9.332589149475098 -6.063138961791992
-4.8724751472473145 -10.785704612731934 -11.257291793823242
24.769073486328125 -0.9822257161140442 -14.642339706420898
34.64098358154297 -0.3860987424850464 -16.57676124572754
-3.4747684001922607 -9.77531623840332 -6.606427192687988
-5.030975580215454 -10.533086776733398 -7.757468223571777
-3.313784599304199 -9.483572006225586 -5.756022930145264
22.381879806518555 -5.03459358215332 -5.699326515197754
22.200040817260742 -5.126291275024414 -6.536162853240967
-6.4373555183410645 -10.483994483947754 -16.161190032958984
-6.077395439147949 -10.42921257019043 -16.18419647216797
-6.577349662780762 -10.31632137298584 -16.821887969970703
-7.570121765136719 -9.987582206726074 -18.06853485107422
21.772964477539062 -5.126808166503906 -5.078067302703857
34.01170349121094 -1.3146034479141235 -18.42802619934082
-3.1550605297088623 -9.149885177612305 -4.91174840927124
21.0687313079834 -5.172031402587891 -4.474385738372803
-6.424628257751465 -9.114109992980957 -19.716590881347656
-5.385233402252197 -8.672548294067383 -20.28798484802246
-6.9194769859313965 -7.98488187789917 -21.569061279296875
-7.675412654876709 -8.310588836669922 -21.2034912109375
-4.381838083267212 -8.908919334411621 -19.59714698791504
-8.332735538482666 -9.24670124053955 -19.769662857055664
3.429898262023926 -1.1768953800201416 -3.121561050415039
3.434251308441162 -1.1642093658447266 -3.086394786834717
21.490093231201172 -5.201374053955078 -5.010319709777832
-7.054958343505859 -10.545662879943848 -16.218849182128906
-8.300498008728027 -10.65361213684082 -16.289382934570312
-6.711453437805176 -10.871660232543945 -14.51404094696045
21.9260311126709 -5.16862154006958 -5.5658087730407715
34.61819076538086 -0.5872044563293457 -16.586809158325195
21.467567443847656 -5.35128116607666 -6.382251739501953
-6.114394187927246 -11.045172691345215 -11.614360809326172
21.485023498535156 -5.291906833648682 -5.464083671569824
-2.1030498147010803 -6.5472731590271 -0.9586684703826904
20.947124481201172 -5.4999918937683105 -6.323200702667236
24.957727432250977 -0.9262198805809021 -13.953960418701172
33.96132278442383 -1.4747066497802734 -18.42180824279785
