ply
format ascii 1.0
element vertex 811
property float x
property float y
property float z
end_header
-0.5701999664306641 -0.05889998376369476 0.6150499880313873
-0.5871000289916992 -0.04179997742176056 0.6511499583721161
-0.7364001274108887 -0.4713999927043915 0.6427499949932098
-0.7000002861022949 -0.10819998383522034 0.3656499683856964
-0.6905002593994141 -0.09139998257160187 0.3989500105381012
-0.723900318145752 -0.06589998304843903 0.38315001130104065
-0.8506999015808105 -0.03739997744560242 -0.027350038290023804
-0.7095999717712402 -0.1167999804019928 0.2722499668598175
-0.6943001747131348 -0.08329997956752777 0.22324994206428528
-0.5910000801086426 0.11680001020431519 0.0677500069141388
-0.5395002365112305 -0.8522000014781952 0.31144991517066956
-0.7360000610351562 -0.19379998371005058 0.7423499524593353
-0.6234002113342285 -0.1719999834895134 0.36244991421699524
-0.5982003211975098 -0.16919998452067375 0.3341499865055084
-0.587399959564209 -0.12619998306035995 0.3897499144077301
-0.22720003128051758 0.10680001974105835 0.40765002369880676
-0.10830020904541016 0.10900002717971802 0.4473499357700348
-0.10510015487670898 0.15130001306533813 0.39274993538856506
-0.779900074005127 0.11500000953674316 -0.37595006823539734
-0.7623000144958496 -0.23139998316764832 -0.3388499915599823
-0.6726999282836914 -0.5519999861717224 0.2854500114917755
-0.6999001502990723 -0.6014999747276306 0.2592499554157257
-0.7281002998352051 -0.5650999844074249 0.24544993042945862
-0.8459000587463379 -0.08449998497962952 0.02624991536140442
-0.7245001792907715 -0.5325999855995178 0.6393499672412872
-0.6477999687194824 -0.8407000005245209 0.6194499433040619
-0.7157001495361328 -0.4154999852180481 0.5174500048160553
-0.7810001373291016 -0.024499982595443726 0.3715499937534332
-0.7571001052856445 -0.04319998621940613 0.35854998230934143
-0.7348999977111816 -0.14909998327493668 0.5192499458789825
-0.7520999908447266 -0.15129998326301575 0.5590499937534332
-0.5308003425598145 -0.9385999739170074 0.7766499817371368
-0.5718998908996582 -0.9213999807834625 0.7108499705791473
-0.5855002403259277 -0.8905999958515167 0.7315499484539032
-0.5920000076293945 -0.9266999661922455 0.5976499617099762
-0.5714001655578613 -0.9547999799251556 0.6111499965190887
-0.45730018615722656 -0.9575999677181244 0.5094499886035919
-0.47100019454956055 -0.9029999673366547 0.4563499987125397
-0.523900032043457 -0.05449998378753662 0.6294499933719635
-0.7007999420166016 -0.42339998483657837 0.2846499979496002
-0.7332000732421875 0.14890000224113464 0.05794993042945862
-0.6721000671386719 -0.11919998377561569 0.4181499779224396
-0.6682000160217285 -0.16589998453855515 0.43104997277259827
-0.7822003364562988 -0.3789999783039093 0.24085000157356262
-0.7512001991271973 -0.5712999701499939 0.20914998650550842
-0.5657000541687012 -0.978799968957901 0.17294993996620178
-0.6469001770019531 -0.8678999841213226 0.2235499918460846
-0.6451001167297363 -0.8946999609470367 0.18925002217292786
-0.7744998931884766 -0.037799984216690063 0.3210499584674835
-0.6129999160766602 -0.9040999710559845 0.6451499760150909
-0.5992999076843262 -0.8973999917507172 0.6883499920368195
-0.6598000526428223 -0.882999986410141 0.14434996247291565
-0.6243000030517578 -0.9219999611377716 0.1853499710559845
-0.7479000091552734 -0.2906999811530113 0.6682499945163727
-0.7136001586914062 -0.04859998822212219 0.5765499174594879
-0.7263998985290527 -0.5082999765872955 0.6692499816417694
-0.7223000526428223 -0.4610999822616577 0.7128499448299408
-0.7172999382019043 -0.4795999825000763 0.7261499464511871
-0.6979999542236328 -0.7672999799251556 0.10714998841285706
-0.6771001815795898 -0.3750999867916107 0.4702499210834503
-0.6744003295898438 -0.3302999809384346 0.8719500005245209
-0.6691999435424805 -0.21639998391037807 0.904149979352951
-0.5409998893737793 -0.4729999899864197 1.0506499707698822
-0.7487001419067383 -0.4089999794960022 0.2615499794483185
-0.7411999702453613 -0.05799998342990875 0.40164998173713684
-0.7392001152038574 0.21310001611709595 -0.04074999690055847
-0.6494998931884766 0.21310001611709595 -0.05455002188682556
-0.29360008239746094 -1.0474999845027924 0.7292499840259552
-0.3418002128601074 -1.023999959230423 0.78575000166893
-0.29559993743896484 -1.0046999752521515 0.8949499428272247
-0.41319990158081055 -0.971699982881546 0.8357499539852142
-0.40380001068115234 -0.9155999720096588 0.9746499955654144
-0.6732001304626465 -0.057599976658821106 0.5671500265598297
-0.8608002662658691 0.10490000247955322 0.025450021028518677
-0.4819002151489258 0.1980000138282776 0.0780499279499054
-0.7481999397277832 -0.07449997961521149 0.364749938249588
-0.8594999313354492 0.03450000286102295 0.18834999203681946
-0.8059000968933105 -0.28519998490810394 -0.012150019407272339
-0.6512002944946289 -0.08339998126029968 0.5019499361515045
-0.6054000854492188 -0.08809998631477356 0.5057499706745148
-0.6273999214172363 -0.07019998133182526 0.5604499876499176
-0.6133999824523926 -0.5386999845504761 0.35614994168281555
-0.48850011825561523 -0.029499977827072144 0.5507499277591705
-0.47660017013549805 -0.02239997684955597 0.5907500088214874
-0.6965999603271484 -0.07099997997283936 0.5111499130725861
-0.7206001281738281 -0.07599999010562897 0.48794999718666077
-0.6765003204345703 -0.0883999764919281 0.46365001797676086
-0.4875001907348633 0.2218000292778015 0.05094996094703674
-0.5704002380371094 -0.7775000035762787 0.4371500313282013
-0.5820002555847168 -0.06599998474121094 0.57505002617836
-0.5748000144958496 -0.8274999558925629 0.2950499355792999
-0.6434001922607422 -0.4958999752998352 0.4378500282764435
-0.2059001922607422 -1.1123999655246735 0.022949963808059692
-0.13810014724731445 -1.1227000057697296 0.0660499632358551
-0.11829996109008789 -1.125900000333786 0.029149919748306274
0.09669971466064453 -1.1577999889850616 0.13934996724128723
0.0700998306274414 -1.1480999886989594 0.18814995884895325
0.13299989700317383 -1.1554999649524689 0.2057500183582306
0.23399972915649414 -1.0796999633312225 0.3602500259876251
0.2143998146057129 -1.1081999838352203 0.3170500099658966
0.17849969863891602 -1.074099987745285 0.3673500120639801
0.044300079345703125 -1.1428000032901764 -0.06785008311271667
0.07049989700317383 -1.150299996137619 0.03574994206428528
0.20399999618530273 -1.1631999909877777 0.015049964189529419
-0.7323002815246582 -0.37709999084472656 0.7098499834537506
-0.7272000312805176 -0.34839998185634613 0.7465499937534332
-0.7849001884460449 -0.08009998500347137 0.3341499865055084
-0.762199878692627 -0.11549998074769974 0.33184996247291565
-0.6933999061584473 -0.18379998207092285 0.33435001969337463
-0.7115001678466797 -0.2329999841749668 0.31334999203681946
-0.7474002838134766 -0.19129998423159122 0.3112500011920929
0.221099853515625 -1.060299962759018 0.41784992814064026
0.1802997589111328 -1.0575999915599823 0.45274999737739563
0.21859979629516602 -1.0746999680995941 0.4847499430179596
-0.12960004806518555 -1.091899961233139 0.6431500017642975
-0.17400026321411133 -1.084300011396408 0.6492500007152557
-0.15560007095336914 -1.0850999653339386 0.6845499575138092
0.10109996795654297 -1.131300002336502 0.6468499600887299
0.0531001091003418 -1.1236999928951263 0.6447499692440033
0.046799659729003906 -1.1189999878406525 0.6823499500751495
-0.12050008773803711 -1.0898999869823456 0.6952499449253082
0.08990001678466797 -1.0755999982357025 0.9626499712467194
0.00469970703125 -1.0441999733448029 1.0688499510288239
0.23269987106323242 -1.0588999688625336 1.0821499526500702
-0.6732001304626465 -0.20189998392015696 0.44715002179145813
-0.24100017547607422 -1.0614999830722809 0.6250499784946442
-0.25010013580322266 -1.0654999911785126 0.6839499771595001
-0.21810007095336914 -1.0760999619960785 0.6551499664783478
-0.5234999656677246 -1.0060000121593475 0.12414994835853577
-0.6167001724243164 -0.6240999698638916 0.32124999165534973
-0.6403999328613281 -0.5765999853610992 0.3080499470233917
-0.6760001182556152 -0.8394999802112579 0.16814997792243958
-0.6891002655029297 -0.8038999736309052 0.15835002064704895
-0.6679000854492188 -0.8372999727725983 0.08544996380805969
-0.6638998985290527 -0.8361999690532684 0.044050008058547974
-0.6810002326965332 -0.8017999827861786 0.07565000653266907
0.33879995346069336 -1.042499989271164 1.0937499701976776
0.4958000183105469 -1.1702999770641327 0.19364991784095764
0.45839977264404297 -1.1688999831676483 0.21124997735023499
0.4727001190185547 -1.1548999845981598 0.2396499216556549
-0.6452999114990234 -0.8468999564647675 0.002649933099746704
-0.6633000373840332 -0.8110999763011932 -0.011350005865097046
-0.6719999313354492 -0.8383999764919281 0.12675002217292786
-0.6803998947143555 -0.7765999734401703 0.020249992609024048
-0.634000301361084 -0.8846999704837799 0.05354991555213928
-0.6041998863220215 -0.9330999553203583 0.06304994225502014
-0.6273002624511719 -0.8825999796390533 0.0165499746799469
-0.6477999687194824 -0.7018999755382538 0.27594998478889465
-0.6407999992370605 -0.8867000043392181 0.09054997563362122
-0.6157999038696289 -0.6649999916553497 0.3121500313282013
-0.5927000045776367 -0.6565999984741211 0.3604499399662018
-0.6326999664306641 -0.8149999678134918 0.5192499458789825
0.587399959564209 -1.0679999887943268 0.2917499840259552
0.6050000190734863 -1.0973999798297882 0.26134994626045227
0.5573000907897949 -1.1117999851703644 0.26834991574287415
0.5885000228881836 -1.016999989748001 0.505950003862381
0.5605998039245605 -1.0397000014781952 0.5376500189304352
0.5837998390197754 -1.0212999880313873 0.5693499147891998
-0.5721001625061035 -0.7301999628543854 0.40905001759529114
-0.5504999160766602 -0.7594999969005585 0.3786499798297882
-0.6968998908996582 -0.7169999778270721 -0.0036500394344329834
-0.6614999771118164 -0.7355999648571014 -0.1775500476360321
-0.6164999008178711 -0.5019999742507935 0.38704994320869446
-0.421600341796875 -0.9837999641895294 0.5309499800205231
-0.43340015411376953 -1.009799987077713 0.5638499557971954
-0.3761000633239746 -0.9808000028133392 0.5222499668598175
-0.4095001220703125 -0.9568999707698822 0.4979499876499176
-0.6605000495910645 -0.8035999834537506 0.6409499943256378
-0.6733002662658691 -0.7664999663829803 0.662449985742569
-0.6401000022888184 -0.8425999581813812 0.6864499747753143
-0.677800178527832 -0.7534999549388885 0.6133499443531036
0.4201998710632324 -1.1178999841213226 0.6470499932765961
0.37309980392456055 -1.1328000128269196 0.610649973154068
0.37559986114501953 -1.1289999783039093 0.6745499670505524
-0.5820999145507812 -0.9253999888896942 0.669549971818924
-0.6161003112792969 -0.7366000115871429 0.2923499643802643
-0.592400074005127 -0.7104999721050262 0.323049932718277
-0.5546998977661133 -0.7815999686717987 0.33365002274513245
-0.5287003517150879 -0.8073999583721161 0.35795000195503235
-0.5659003257751465 -0.7427999675273895 0.3413499891757965
-0.5713000297546387 -0.7122999727725983 0.36955001950263977
-0.6080999374389648 -0.6888999938964844 0.4395499527454376
-0.5887002944946289 -0.691899985074997 0.40835002064704895
-0.5961003303527832 -0.7728999555110931 0.2980499565601349
-0.6388001441955566 -0.6931999921798706 0.47624996304512024
-0.24180030822753906 -0.953900009393692 0.4022499620914459
-0.2041001319885254 -0.965099960565567 0.40054991841316223
-0.2128000259399414 -1.0050999820232391 0.3600499927997589
-0.5511002540588379 -0.9467000067234039 0.6938499510288239
-0.34640026092529297 -1.0248999893665314 0.305249959230423
-0.39170026779174805 -1.0476999580860138 0.2577499449253082
-0.39330005645751953 -1.0029999911785126 0.30834999680519104
-0.772700309753418 -0.48649999499320984 0.07884994149208069
-0.5301003456115723 -0.9977999627590179 0.1780499517917633
-0.4739999771118164 -1.0286999642848969 0.13784995675086975
-0.4244999885559082 -1.0512999594211578 0.15144994854927063
-0.4637002944946289 -1.0347000062465668 0.08614996075630188
-0.46540021896362305 0.2770000100135803 -0.019749969244003296
-0.3365001678466797 -0.9661999642848969 0.5051499903202057
-0.338900089263916 -1.0164999663829803 0.5704499781131744
-0.5738000869750977 -0.8799000084400177 0.5026499330997467
-0.5497002601623535 -0.8307999670505524 0.45065000653266907
-0.509000301361084 -0.8470999896526337 0.34515002369880676
-0.28480005264282227 -0.9794999659061432 0.52484992146492
-0.31260013580322266 -0.943699985742569 0.46824994683265686
-0.49850034713745117 -0.8411000072956085 0.38794997334480286
-0.0419001579284668 -1.0428999960422516 0.5122499763965607
-0.2404003143310547 -0.9920999705791473 0.5340500175952911
-0.2425999641418457 -1.0286000072956085 0.5736499130725861
-0.1951003074645996 -0.9945000112056732 0.5234499275684357
-0.24280023574829102 -1.0316999852657318 0.33114996552467346
-0.22770023345947266 -1.0654999911785126 0.3062500059604645
-0.4814000129699707 -0.9852999746799469 0.7120499908924103
-0.4895000457763672 -0.9961999952793121 0.6715499460697174
-0.510200023651123 -0.9673999845981598 0.7240499556064606
-0.47320032119750977 -0.9744000136852264 0.7526499927043915
-0.45260000228881836 -1.0031000077724457 0.7000499665737152
-0.5037999153137207 -0.9866000115871429 0.5743500292301178
-0.3675999641418457 -0.935399979352951 0.45694997906684875
-0.49790000915527344 -0.9938999712467194 0.6233499944210052
-0.45930004119873047 -1.013299971818924 0.6341499984264374
-0.530400276184082 -0.9754999577999115 0.6413500010967255
-0.5387001037597656 -0.9722000062465668 0.58924999833107
-0.4022998809814453 -1.0304000079631805 0.6227499544620514
-0.4405999183654785 -1.0118999779224396 0.6746499836444855
-0.44190025329589844 -1.028899997472763 0.25574997067451477
-0.3428001403808594 -1.0419000089168549 0.6760499775409698
-0.35450029373168945 -1.029399961233139 0.7313499748706818
-0.379000186920166 -1.020399957895279 0.5826499760150909
-0.3436002731323242 -1.041399985551834 0.6247499883174896
0.07679986953735352 -1.1243999898433685 0.2800499498844147
0.013700008392333984 -1.1318999826908112 0.2477499544620514
0.022099971771240234 -1.1066999733448029 0.2982499897480011
0.36590003967285156 -1.1301999986171722 0.5671500265598297
0.32219982147216797 -1.1356999576091766 0.5787499248981476
-0.6133003234863281 -0.8278999626636505 0.7731499969959259
-0.4348001480102539 -1.0452999770641327 0.2031499445438385
-0.5163002014160156 -0.8874000012874603 0.8639499843120575
-0.5018000602722168 -0.8361000120639801 0.9513499438762665
-0.4672999382019043 -0.9270999729633331 0.8756499588489532
-0.5617003440856934 -0.7992999851703644 0.8910499513149261
-0.4671001434326172 -0.9690999686717987 0.2923499643802643
-0.43310022354125977 -0.9704999625682831 0.311350017786026
-0.430300235748291 -0.9050999581813812 0.3720499575138092
-0.40450000762939453 -0.9111000001430511 0.4052499830722809
-0.40759992599487305 -0.9384999573230743 0.35134997963905334
0.4605998992919922 -1.089499980211258 0.7243499457836151
0.48469972610473633 -1.0631999671459198 0.7536499798297882
0.4858999252319336 -1.077699989080429 0.7018499672412872
-0.12820005416870117 -1.0999999940395355 0.27734997868537903
-0.0989999771118164 -1.1166000068187714 0.24264994263648987
-0.08080005645751953 -1.127599984407425 -0.02245005965232849
-0.26149988174438477 -1.0870999991893768 -0.11135002970695496
-0.31710004806518555 -1.0616999566555023 -0.2456500232219696
-0.15790033340454102 -1.1193999946117401 0.10295000672340393
-0.2381000518798828 -0.9618000090122223 0.49904993176460266
-0.27010011672973633 -0.9449000060558319 0.47554996609687805
-0.2800002098083496 -0.938400000333786 0.4287499487400055
-0.6298003196716309 -0.42729999125003815 0.3492499887943268
-0.36570024490356445 -1.0642999708652496 0.2339499294757843
-0.12800025939941406 -1.0701999962329865 0.32294991612434387
-0.05390024185180664 -1.1166000068187714 0.25694993138313293
-0.03170013427734375 -1.1029999554157257 0.29394999146461487
-0.23710012435913086 -0.9413000047206879 0.4539499580860138
-0.48869991302490234 -0.027899980545043945 0.5032499134540558
-0.7613000869750977 -0.026299983263015747 0.21414998173713684
-0.39170026779174805 -1.027599960565567 0.6778499782085419
-0.4156002998352051 -1.0100999772548676 0.7286499440670013
-0.3990001678466797 -1.0552999675273895 0.21285000443458557
-0.6273002624511719 0.12550002336502075 0.051549941301345825
-0.645200252532959 -0.053299978375434875 0.5967499315738678
-0.7041001319885254 -0.6562999784946442 0.6426499783992767
-0.20399999618530273 -0.9567999541759491 0.4769499599933624
-0.15820026397705078 -0.9772000014781952 0.47585001587867737
-0.19560003280639648 -0.9537999927997589 0.4355500042438507
-0.28150033950805664 -1.084199994802475 0.25564995408058167
-0.23620033264160156 -1.091399997472763 0.25745001435279846
-0.18779993057250977 -1.0697999894618988 0.6099499762058258
-0.24219989776611328 -1.0987999737262726 0.20554998517036438
-0.2171001434326172 -1.0999999940395355 0.22764995694160461
-0.4345998764038086 -0.008099988102912903 0.5648500025272369
-0.44120025634765625 0.002700015902519226 0.5121499598026276
-0.39260005950927734 0.006200015544891357 0.5389499962329865
-0.030700206756591797 -1.1393999755382538 0.03534999489784241
0.03299999237060547 -1.14860001206398 0.08734992146492004
-0.18380022048950195 -1.0785000026226044 0.30004993081092834
-0.3575000762939453 -1.0767000019550323 0.0670500099658966
-0.3111000061035156 -1.0900000035762787 0.08604994416236877
-0.3049001693725586 -1.0879000127315521 0.03555002808570862
-0.403900146484375 -1.063400000333786 0.04804995656013489
-0.39100027084350586 -1.063999980688095 0.10924997925758362
0.013199806213378906 -1.098499983549118 0.7900499999523163
-0.04080009460449219 -1.0956999957561493 0.7678499519824982
0.02460002899169922 -1.0855999886989594 0.8652499616146088
-0.2585000991821289 -1.1011999547481537 0.054549962282180786
-0.24609994888305664 -1.1009999811649323 0.11805000901222229
-0.29870033264160156 -1.0897999703884125 0.14954999089241028
-0.09220027923583984 0.018500015139579773 0.6691499650478363
-0.3780999183654785 -1.0645999610424042 0.17045000195503235
-0.19810009002685547 -1.108000010251999 0.19794991612434387
-0.332700252532959 -1.0751999914646149 -0.031650036573410034
-0.3605003356933594 -1.0624999701976776 -0.09884998202323914
-0.20200014114379883 -1.1101999580860138 0.11044993996620178
-0.44339990615844727 0.17500001192092896 0.16894999146461487
-0.5789999961853027 0.1511000096797943 0.047050029039382935
0.5292997360229492 -1.060399979352951 0.5390500128269196
0.5506000518798828 -1.0464999973773956 0.5940499603748322
-0.08030033111572266 -1.0721000134944916 0.8467499911785126
-0.11980009078979492 -1.048499971628189 0.9256499707698822
-0.018100261688232422 -1.0699999630451202 0.918349951505661
-0.8301000595092773 0.14880001544952393 0.061049968004226685
-0.1424999237060547 -1.0742999613285065 0.7751499712467194
0.06719970703125 -1.1012999713420868 0.8122499883174896
0.06949996948242188 -1.0791999995708466 0.5315499603748322
0.06920003890991211 -1.1034999787807465 0.5656500160694122
0.11249971389770508 -1.112799972295761 0.5711499750614166
0.15049982070922852 -1.119199961423874 0.2987499535083771
0.17880010604858398 -1.1371999680995941 0.27175000309944153
0.12379980087280273 -1.1392000019550323 0.26274994015693665
-0.16770029067993164 -0.9826999604701996 0.4012499153614044
0.010600090026855469 0.1113000214099884 0.48704996705055237
0.20739984512329102 -1.1410999596118927 0.6466499865055084
0.15420007705688477 -1.1363999545574188 0.6467499434947968
0.14790010452270508 -1.1315999925136566 0.6843499839305878
0.17229986190795898 -1.1173999607563019 0.7872499525547028
0.13179969787597656 -1.1142999827861786 0.7893499433994293
0.013199806213378906 -1.1453000009059906 0.12424996495246887
0.014499664306640625 -1.1397999823093414 0.19794991612434387
-0.048200130462646484 -1.1295999586582184 0.21515002846717834
-0.024499893188476562 -1.0570999681949615 0.35674992203712463
-0.0708003044128418 -1.0967999994754791 0.6117499768733978
-0.15980005264282227 -0.9688999950885773 0.43674996495246887
-0.1565999984741211 -1.0038000047206879 0.5174500048160553
-0.11680030822753906 -0.9968999922275543 0.47554996609687805
-0.2690000534057617 0.34130004048347473 0.09104993939399719
-0.43690013885498047 -0.898499995470047 0.42765000462532043
-0.4229001998901367 -0.9214999973773956 0.45725002884864807
-0.05970001220703125 -1.103199988603592 0.6655499637126923
-0.032900333404541016 -1.0994999706745148 0.5992499887943268
0.014400005340576172 -1.1124999821186066 0.6938499510288239
0.02390003204345703 -1.108700007200241 0.7449499666690826
0.1314997673034668 -1.0804999768733978 0.5165499746799469
0.08169984817504883 -1.0588000118732452 0.4964499771595001
-0.11960029602050781 -0.9938999712467194 0.4345499575138092
-0.09439992904663086 -1.0126999914646149 0.40244999527931213
-0.06780004501342773 -1.0149999558925629 0.4234500229358673
-0.5486001968383789 -0.09479998052120209 0.3802500069141388
-0.5297999382019043 -0.08329997956752777 0.31864991784095764
-0.6796002388000488 -0.4440999776124954 0.8397499620914459
-0.6993002891540527 -0.1540999822318554 0.4726499617099762
-0.15380001068115234 -1.0456999838352203 0.5621500313282013
0.12169981002807617 -1.0976000130176544 0.3267499506473541
-0.07159996032714844 -1.0191999971866608 0.4800499975681305
-0.8529000282287598 -0.06109999120235443 0.20634999871253967
0.05760002136230469 -1.1422999799251556 0.22214999794960022
0.04500007629394531 -1.1498999893665314 0.15024998784065247
0.471099853515625 -1.091399997472763 0.657150000333786
-0.716400146484375 -0.545199990272522 0.695749968290329
-0.37240028381347656 0.0252000093460083 0.5076499283313751
-0.40560007095336914 0.14190000295639038 0.2496500313282013
-0.7007999420166016 -0.0834999829530716 0.3971499502658844
-0.14230012893676758 0.25700002908706665 0.24095001816749573
-0.20569992065429688 0.29920002818107605 0.1659499704837799
-0.10860013961791992 0.31189998984336853 0.15604999661445618
-0.43630027770996094 -0.9812999665737152 0.7811499536037445
-0.6245002746582031 -0.10979998111724854 0.4394499361515045
-0.7955002784729004 -0.16109998524188995 0.28814998269081116
-0.030499935150146484 -1.0225000083446503 0.4472499191761017
-0.874000072479248 0.08130002021789551 0.15674999356269836
-0.5185003280639648 -0.046499982476234436 0.492749959230423
-0.4886002540588379 -0.018599987030029297 0.45005002617836
-0.4535999298095703 0.004100009799003601 0.46734991669654846
-0.7060003280639648 -0.19579998403787613 0.4865500032901764
-0.4783000946044922 -0.0867999792098999 0.8097499907016754
-0.8113999366760254 0.02240002155303955 0.23194995522499084
-0.3036003112792969 0.04770001769065857 0.5032499134540558
-0.3324003219604492 0.04900002479553223 0.46904996037483215
-0.796600341796875 -0.3879999816417694 0.10365000367164612
0.06029987335205078 -1.1198000013828278 0.6048499643802643
0.005099773406982422 -1.1159000098705292 0.6425499618053436
-0.6277003288269043 -0.39469999074935913 0.3858499825000763
0.0885000228881836 -1.121699959039688 0.7220499813556671
-0.023600101470947266 -1.080700010061264 0.5591500103473663
-0.7961001396179199 -0.3828999847173691 0.14514997601509094
-0.8011002540588379 -0.36469998955726624 0.10774996876716614
-0.836400032043457 -0.17869998514652252 0.13325002789497375
-0.6830000877380371 -0.1533999852836132 0.2931499779224396
0.17109966278076172 -1.1026000082492828 0.3223499357700348
0.309999942779541 -1.1259999573230743 0.2941500246524811
0.3243999481201172 -1.150799959897995 0.25684991478919983
0.2697000503540039 -1.138299971818924 0.27744999527931213
0.39839982986450195 -1.1064999997615814 0.5230499804019928
0.4021000862121582 -1.1177999675273895 0.5665499269962311
0.43249988555908203 -1.0967999994754791 0.520249992609024
0.3942999839782715 -1.0887999832630157 0.4849499762058258
0.354799747467041 -1.108700007200241 0.5219499170780182
0.062200069427490234 -1.0908999741077423 0.32694998383522034
0.16050004959106445 -1.13469997048378 0.6069499552249908
0.21299982070922852 -1.1205999553203583 0.7841499745845795
0.2349996566772461 -1.115200012922287 0.8111499845981598
0.28189992904663086 -1.1223999559879303 0.7691499888896942
0.21649980545043945 -1.1249000132083893 0.5671500265598297
0.23099994659423828 -1.10139998793602 0.5262499153614044
0.18720006942749023 -1.0927999913692474 0.5223499834537506
0.06839990615844727 -1.0431999862194061 0.46264997124671936
0.02369976043701172 -1.0347000062465668 0.4378500282764435
0.03299999237060547 -1.0519999563694 0.49924996495246887
0.02299976348876953 -1.0901999771595001 0.5611499845981598
0.13269996643066406 -1.158600002527237 0.16055002808570862
0.16860008239746094 -1.1593999564647675 0.18184998631477356
0.16339969635009766 -1.1642999947071075 0.12904992699623108
-0.01789999008178711 -1.1059999763965607 0.7052499949932098
0.0812997817993164 -1.0437999665737152 0.4264499247074127
0.1231999397277832 -1.0578999817371368 0.3956499397754669
0.06319999694824219 -1.056799978017807 0.38044992089271545
0.018599987030029297 -1.0726999938488007 0.3427499830722809
0.1503000259399414 -1.1604999601840973 0.0772499144077301
0.23019981384277344 -1.1706999838352203 0.11864998936653137
-0.016499996185302734 -1.0349999964237213 0.4853499233722687
0.28949975967407227 -1.1344999969005585 0.7069499790668488
0.3287997245788574 -1.129399985074997 0.7144499719142914
0.28749990463256836 -1.1433999836444855 0.6490499675273895
0.16209983825683594 -1.1119000017642975 0.5555500090122223
0.2820000648498535 -1.1665999591350555 0.1965499222278595
0.3445000648498535 -1.1719999611377716 0.17635002732276917
0.30209970474243164 -1.1723999679088593 0.1611500084400177
0.125 -1.0519999563694 0.45624998211860657
0.1690998077392578 -1.0676999986171722 0.48614993691444397
0.44409990310668945 -1.1738999783992767 0.1787499487400055
0.2406001091003418 -1.1608000099658966 0.224450021982193
0.2258000373840332 -1.1389000117778778 0.2736499607563019
0.1659998893737793 -1.055099993944168 0.4183500111103058
0.5053000450134277 -1.0753999650478363 0.5382499992847443
0.5046000480651855 -1.0667999684810638 0.498850017786026
0.47790002822875977 -1.084699958562851 0.5328499376773834
0.5030999183654785 -1.076999992132187 0.5875499546527863
0.5078997611999512 -1.1110999882221222 0.2819500267505646
0.5011997222900391 -1.0808999836444855 0.31394997239112854
0.23539972305297852 -1.1658999621868134 0.1714499294757843
0.5222001075744629 -1.0545999705791473 0.6777499616146088
0.4665999412536621 -1.0773999989032745 0.7539499700069427
0.45370006561279297 -1.0778000056743622 0.7845499813556671
0.4416999816894531 -1.0933999717235565 0.7505500018596649
0.4267997741699219 -1.1076000034809113 0.7181499898433685
0.4246997833251953 -1.0950999557971954 0.7768499553203583
0.33990001678466797 -1.1386999785900116 0.6408499777317047
0.3783998489379883 -1.1356999576091766 0.27734997868537903
0.4022998809814453 -1.1198000013828278 0.6970499455928802
0.38560009002685547 -1.1094000041484833 0.7571499645709991
0.44519996643066406 -1.103199988603592 0.6859499514102936
0.6012997627258301 -1.1322999894618988 0.22894993424415588
0.6329998970031738 -1.059199959039688 0.2837499678134918
0.6405000686645508 -1.1113999783992767 0.2308500111103058
0.2827000617980957 -1.1583999693393707 0.23984995484352112
0.012399673461914062 -1.0448000133037567 0.38634994626045227
0.3533000946044922 -1.1048999726772308 0.3168499767780304
-0.5467000007629395 0.1323000192642212 0.07935002446174622
0.26039981842041016 -1.0679999887943268 0.38245001435279846
0.3126997947692871 -1.063400000333786 0.43244996666908264
0.30429983139038086 -1.1088999807834625 0.5249499380588531
0.2705998420715332 -1.0600999891757965 0.4143499433994293
0.301300048828125 -1.0663999617099762 0.3865499794483185
-0.01380014419555664 -1.060299962759018 0.5283500254154205
0.33899974822998047 -1.0628999769687653 0.39924994111061096
0.37419986724853516 -1.0645999610424042 0.3847499191761017
0.33990001678466797 -1.0755999982357025 0.36184993386268616
0.5156998634338379 -1.1397999823093414 0.25084999203681946
0.19569969177246094 -1.159199982881546 0.20904996991157532
0.5440998077392578 -1.0422999560832977 0.4840499460697174
0.5229001045227051 -1.0232000052928925 0.7763499915599823
-0.1230001449584961 -1.0178999602794647 0.38124993443489075
0.3466000556945801 -1.0783999860286713 0.4687500298023224
0.2920999526977539 -1.0969999730587006 0.3341499865055084
0.1950998306274414 -1.1518999636173248 -0.2325499951839447
0.36999988555908203 -1.0659999549388885 0.43114998936653137
0.40829992294311523 -1.1024999916553497 0.3143499195575714
0.4773998260498047 -1.032999962568283 0.8610499799251556
0.3635997772216797 -1.1836999952793121 0.09795001149177551
0.5657997131347656 -0.31789998710155487 0.8905499875545502
0.5699996948242188 -0.39079998433589935 0.9876499474048615
0.49760007858276367 -0.2799999862909317 1.021949976682663
0.648900032043457 -0.37769998610019684 0.4047500193119049
0.6430997848510742 -0.36389999091625214 0.4483499825000763
0.6345000267028809 -0.33239998668432236 0.43275001645088196
0.5875997543334961 -0.5824999809265137 1.118749976158142
0.5262999534606934 -0.7144999802112579 1.4003499746322632
0.5191998481750488 -0.5007999837398529 1.290149986743927
0.6784000396728516 -0.5697999894618988 0.7789499461650848
0.7097997665405273 -0.585099995136261 0.6753499805927277
0.7042999267578125 -0.6559999883174896 0.7210499942302704
0.5720996856689453 -0.47839999198913574 1.082749992609024
0.6243996620178223 -0.4583999812602997 0.8759499490261078
0.5974998474121094 -0.4242999851703644 0.9309499561786652
0.5953998565673828 -0.3878999799489975 0.8823499977588654
0.40619993209838867 -0.07329998910427094 0.6928499639034271
0.39639997482299805 -0.04199998080730438 0.6216499507427216
0.45510005950927734 -0.0835999846458435 0.6269499957561493
0.5234999656677246 -0.1565999835729599 0.7034499943256378
0.5085997581481934 -0.17349998280405998 0.7589499652385712
0.47459983825683594 -0.14619998633861542 0.7693499624729156
0.6177000999450684 -0.22009998373687267 0.5641500055789948
0.6335000991821289 -0.2589999847114086 0.5480499565601349
0.6342000961303711 -0.272699985653162 0.5845499336719513
0.4937000274658203 -0.19049998372793198 0.8143499791622162
0.5425996780395508 -0.20089998375624418 0.7484499514102936
0.5927000045776367 -0.1979999840259552 0.593949943780899
0.573699951171875 -0.160599984228611 0.5608499348163605
0.737800121307373 -0.22959998436272144 0.21515002846717834
0.701200008392334 -0.17639998346567154 0.19604995846748352
0.7211999893188477 -0.1824999824166298 0.14994993805885315
0.8165998458862305 -0.40149998664855957 0.2530499994754791
0.7842998504638672 -0.357699990272522 0.2606499493122101
0.8083996772766113 -0.3489999771118164 0.197549968957901
0.3474998474121094 0.04560002684593201 0.42104998230934143
0.40149974822998047 0.02320002019405365 0.3874500095844269
0.4210996627807617 -0.004999980330467224 0.45215001702308655
0.5616998672485352 -0.16569998487830162 0.6117499768733978
0.5425996780395508 -0.16109998524188995 0.657649964094162
0.5282998085021973 -0.14169998466968536 0.647549957036972
0.8624997138977051 -0.6280999779701233 0.22714999318122864
0.8680996894836426 -0.6824999749660492 0.1992500126361847
0.8441996574401855 -0.6451999843120575 0.2662499248981476
0.8291997909545898 -0.3878999799489975 0.18974998593330383
0.7032999992370605 -0.5206999778747559 0.6467499434947968
0.690000057220459 -0.534199982881546 0.7117500007152557
0.6777997016906738 -0.47119998931884766 0.6925499737262726
0.7283997535705566 -0.7470000088214874 0.6306499540805817
0.7365999221801758 -0.7700000107288361 0.5710499584674835
0.7232999801635742 -0.7976999580860138 0.6131499707698822
0.6835999488830566 -0.21109998412430286 0.29045000672340393
0.6965999603271484 -0.1894999835640192 0.24294999241828918
0.7160000801086426 -0.22989998385310173 0.25724998116493225
0.6312999725341797 -0.4245999902486801 0.8069499433040619
0.6514997482299805 -0.4640999883413315 0.7820499837398529
0.6243996620178223 -0.2920999825000763 0.6472499668598175
0.5903000831604004 -0.2320999838411808 0.6791499555110931
0.6045999526977539 -0.22559998370707035 0.6220499575138092
0.6377997398376465 -0.39169998466968536 0.7397499978542328
0.5932998657226562 -0.3514999896287918 0.8337499797344208
0.8547000885009766 -0.5365999937057495 0.2357499897480011
0.8303999900817871 -0.5529999732971191 0.28644993901252747
0.8371000289916992 -0.4932999908924103 0.2714499533176422
0.6312999725341797 -0.2813999876379967 0.45444992184638977
0.6291999816894531 -0.3008999824523926 0.4111500084400177
0.6510000228881836 -0.39479997754096985 0.6942499577999115
0.6577997207641602 -0.4307999908924103 0.7156499922275543
0.5151000022888184 -0.02249997854232788 0.25704994797706604
0.5337996482849121 -0.05089998245239258 0.34474995732307434
0.4759998321533203 0.003300011157989502 0.2615499794483185
0.4963998794555664 0.0059000104665756226 0.16934993863105774
0.5922999382019043 -0.0697999894618988 0.22424998879432678
0.7044000625610352 -0.4875999987125397 0.5941499769687653
0.6911001205444336 -0.47419998049736023 0.6462499797344208
0.4616999626159668 -0.20799998380243778 0.9285499751567841
0.5116000175476074 -0.22649998404085636 0.8610499799251556
0.529599666595459 -0.26259998232126236 0.907649964094162
0.5473999977111816 -0.17219998314976692 0.6688499748706818
0.5569000244140625 -0.1943999845534563 0.6913499534130096
0.6665997505187988 -0.34579998254776 0.34974995255470276
0.6831998825073242 -0.4008999764919281 0.3552500307559967
0.7213997840881348 -0.5699999928474426 0.6044499576091766
0.5996999740600586 -0.31839998066425323 0.7665499746799469
0.5615997314453125 -0.2450999841094017 0.7934499680995941
0.6061000823974609 -0.28529998660087585 0.699349969625473
0.8389997482299805 -0.37539997696876526 0.12624993920326233
0.6788997650146484 -0.40939998626708984 0.551149994134903
0.6916999816894531 -0.4432999789714813 0.575549989938736
0.6840996742248535 -0.4373999834060669 0.6251499950885773
0.702399730682373 -0.4535999894142151 0.36445000767707825
0.7153000831604004 -0.4203999787569046 0.3365500271320343
0.7588000297546387 -0.43039998412132263 0.31394997239112854
0.42569971084594727 -0.13589998334646225 0.8352499902248383
0.7648000717163086 -0.2808999866247177 0.2236500084400177
0.6925997734069824 -0.36959998309612274 0.33114996552467346
0.7516999244689941 -0.22659998387098312 0.10704997181892395
0.7371001243591309 -0.2000999841839075 0.03444996476173401
0.797299861907959 -0.29739998281002045 0.14194992184638977
0.8640999794006348 -0.7344000041484833 0.14274993538856506
0.8667998313903809 -0.7078999876976013 0.11054995656013489
0.8575997352600098 -0.7532999813556671 0.08924999833106995
0.3453998565673828 -0.03639999032020569 0.6603499948978424
0.49410009384155273 -0.10529998689889908 0.6093499958515167
0.4892997741699219 -0.1200999841094017 0.6652499735355377
0.8182001113891602 -0.33639998733997345 0.1340499222278595
0.8190999031066895 -0.32179998606443405 0.09184995293617249
0.7302999496459961 -0.3853999823331833 0.3120500147342682
0.3825998306274414 0.06180000305175781 0.2795499861240387
0.34549999237060547 0.08190003037452698 0.2856499254703522
0.3418998718261719 0.09610000252723694 0.21414998173713684
0.6568999290466309 -0.284699983894825 0.3452499210834503
0.6377997398376465 -0.32439998537302017 0.3843499720096588
0.7076997756958008 -0.8207999765872955 0.6489499509334564
0.6984000205993652 -0.8429000079631805 0.6484499871730804
0.6898999214172363 -0.8365999758243561 0.6785499751567841
0.8536996841430664 -0.5753999948501587 0.25544992089271545
0.8654999732971191 -0.5827999711036682 0.20744994282722473
0.6658000946044922 -0.43959999084472656 0.4508499205112457
0.6788997650146484 -0.4705999791622162 0.46804991364479065
0.6858997344970703 -0.45569998025894165 0.5201499760150909
0.6219997406005859 -0.3384999856352806 0.7195499837398529
0.6328001022338867 -0.26429998502135277 0.3905499279499054
0.6254000663757324 -0.22679998353123665 0.43974998593330383
0.3670997619628906 0.01750001311302185 0.4857499897480011
0.3866000175476074 -0.010699987411499023 0.5504499971866608
0.27409982681274414 0.08650001883506775 0.41794994473457336
0.46490001678466797 -0.11489998549222946 0.6981499493122101
0.7428998947143555 -0.6786999702453613 0.545149952173233
0.7351999282836914 -0.6843999922275543 0.6095499694347382
0.7332000732421875 -0.6238999962806702 0.5660499632358551
0.4990997314453125 -0.048199981451034546 0.4168500006198883
0.520899772644043 -0.07269997894763947 0.4483499825000763
0.4818997383117676 -0.0510999858379364 0.4659499228000641
0.6517000198364258 -0.513299971818924 0.8316499888896942
0.7262001037597656 -0.6378999948501587 0.6407499611377716
0.6206998825073242 -0.10589998215436935 0.2424500286579132
0.5987000465393066 -0.09589998424053192 0.28234997391700745
0.6888999938964844 -0.9153999984264374 0.39475002884864807
0.6725997924804688 -0.9357999861240387 0.4361499845981598
0.7005996704101562 -0.8881999552249908 0.44394996762275696
0.7427000999450684 -0.7236999571323395 0.5625499784946442
0.7823996543884277 -0.40459997951984406 0.28485003113746643
0.7651996612548828 -0.4885999858379364 0.33024993538856506
0.8014998435974121 -0.49069997668266296 0.30195000767707825
0.7898998260498047 -0.5366999804973602 0.3210499584674835
0.6644001007080078 -0.5112999975681305 0.7843499481678009
0.7266998291015625 -0.6042999923229218 0.6211499869823456
0.8635997772216797 -0.549699991941452 -0.09085008502006531
0.8530998229980469 -0.48079997301101685 -0.20215007662773132
0.8617997169494629 -0.5864999890327454 -0.12375006079673767
0.7118000984191895 -0.5815999805927277 0.4710499346256256
0.7094998359680176 -0.5788999795913696 0.4359499514102936
0.7205996513366699 -0.619299978017807 0.4400499165058136
0.4600996971130371 -0.026599988341331482 0.4344499409198761
0.5330996513366699 -0.12689998745918274 0.5916499197483063
0.30839967727661133 0.10200002789497375 0.2916499674320221
0.2732996940612793 0.14340001344680786 0.16884997487068176
0.3754997253417969 0.09030002355575562 0.1367500126361847
0.2349996566772461 0.1428000032901764 0.28854992985725403
0.16160011291503906 0.18370002508163452 0.2853499948978424
0.1912999153137207 0.1892000138759613 0.2114500105381012
0.8347001075744629 -0.42639999091625214 0.22114995121955872
0.8287997245788574 -0.44689998030662537 0.2607499659061432
0.6536998748779297 -0.4104999899864197 0.4264499247074127
0.6557998657226562 -0.3933999836444855 0.47054997086524963
0.6251997947692871 -0.3219999819993973 0.6859499514102936
0.5718998908996582 -0.132999986410141 0.4854499399662018
0.5980000495910645 -0.17669998481869698 0.5181500017642975
0.5687999725341797 -0.14349998533725739 0.5277499258518219
0.4988999366760254 -0.09039998054504395 0.5534500181674957
0.6855998039245605 -0.486299991607666 0.4225499927997589
0.7010998725891113 -0.526199996471405 0.40804997086524963
0.7005000114440918 -0.543099969625473 0.4415499269962311
0.7321000099182129 -0.4712999761104584 0.34645000100135803
0.7437996864318848 -0.21779998391866684 0.16485002636909485
0.7663998603820801 -0.2531999833881855 0.179749995470047
0.571199893951416 -0.18789998441934586 0.6341499984264374
0.6798996925354004 -0.30949998646974564 0.3243500292301178
0.7083001136779785 -0.33479998260736465 0.3095499575138092
0.8474998474121094 -0.8012999594211578 0.1893499195575714
0.8392996788024902 -0.8314999639987946 0.21554997563362122
0.831200122833252 -0.7909999787807465 0.25745001435279846
0.6505999565124512 -0.3254999816417694 0.6052499711513519
0.8418998718261719 -0.817499965429306 0.1237500011920929
0.8470001220703125 -0.7931999862194061 0.07914999127388
0.8341999053955078 -0.8181000053882599 0.05254998803138733
0.6863999366760254 -0.14729998260736465 0.1479499638080597
0.6272997856140137 -0.2353999838232994 0.506449967622757
0.6140999794006348 -0.19409998320043087 0.47384992241859436
0.8010997772216797 -0.4462999850511551 0.2901499569416046
0.8077998161315918 -0.8422999680042267 -0.05845007300376892
0.7746996879577637 -0.9147000014781952 -0.051050037145614624
0.7894997596740723 -0.907399982213974 0.013150006532669067
0.8505001068115234 -0.43449997901916504 0.16874995827674866
0.5999999046325684 -0.9948999583721161 0.6249499619007111
0.6429996490478516 -0.9510000050067902 0.5916499197483063
0.6152000427246094 -0.9887999594211578 0.551149994134903
0.703700065612793 -0.5480999946594238 0.4800499975681305
0.5748996734619141 -0.12239998579025269 0.44314995408058167
0.5425996780395508 -0.09719998389482498 0.4798499643802643
0.5381999015808105 -0.07399998605251312 0.41224995255470276
0.7857999801635742 -0.3293999806046486 0.23235002160072327
0.7815999984741211 -0.30309998244047165 0.20454993844032288
0.7361998558044434 -0.7883000075817108 0.5263499319553375
0.7427997589111328 -0.7497999966144562 0.5260500013828278
0.7368998527526855 -0.7560999691486359 0.47544994950294495
0.668799877166748 -0.43469998240470886 0.40164998173713684
0.5987997055053711 -0.16329998522996902 0.4610499441623688
0.7137999534606934 -0.5284999907016754 0.5790499746799469
0.714900016784668 -0.55799999833107 0.5277499258518219
0.43829965591430664 -0.0020999908447265625 0.4029499590396881
0.4555997848510742 0.0007000118494033813 0.3538499176502228
0.4646000862121582 -0.053899988532066345 0.5151499807834625
0.4428997039794922 -0.029499977827072144 0.48364999890327454
0.743499755859375 -0.35019998252391815 0.28954997658729553
0.6641998291015625 -0.39799998700618744 0.6488499939441681
0.6441998481750488 -0.358599990606308 0.6724499762058258
0.6768999099731445 -0.40129998326301575 0.6030499637126923
0.6623001098632812 -0.3668999820947647 0.5324499905109406
0.6684999465942383 -0.41179998219013214 0.5033499300479889
0.6754999160766602 -0.5120999813079834 0.7436499893665314
0.6510000228881836 -0.346699982881546 0.49994996190071106
0.6196999549865723 -0.24899998307228088 0.603549987077713
0.6587996482849121 -0.6323999762535095 0.8707499802112579
0.6142001152038574 -0.7121999859809875 1.027949959039688
0.637199878692627 -0.5834999978542328 0.9317499697208405
0.6633996963500977 -0.15309998393058777 0.24104991555213928
0.6577997207641602 -0.13239998370409012 0.19345000386238098
0.6721000671386719 -0.13979998230934143 0.170649915933609
0.5206999778747559 -0.09379998594522476 0.51664999127388
0.5378999710083008 -0.1119999811053276 0.5357499420642853
0.6982998847961426 -0.269499983638525 0.2984500229358673
0.6680998802185059 -0.3660999834537506 0.5798499882221222
0.7163996696472168 -0.7886999547481537 0.6551499664783478
0.6331996917724609 -0.13279998302459717 0.2804500162601471
0.6963000297546387 -0.8066999614238739 0.6948499977588654
0.7093000411987305 -0.7644999921321869 0.6899499595165253
0.4038996696472168 -0.00789998471736908 0.5013499557971954
0.7343997955322266 -0.7679999768733978 0.38634994626045227
0.7318000793457031 -0.7319000065326691 0.4173499643802643
0.7476000785827637 -0.7290000021457672 0.3657499849796295
0.7448000907897949 -0.5382999777793884 0.35725000500679016
0.6447000503540039 -0.2978999838232994 0.5300499498844147
0.5036001205444336 -0.07559998333454132 0.4974500238895416
0.6573996543884277 -0.36169998347759247 0.6270499527454376
0.7404999732971191 -0.7083999812602997 0.49894991517066956
0.6717996597290039 -0.9000999629497528 0.6126499474048615
0.6760001182556152 -0.9170999825000763 0.5466499626636505
0.8122997283935547 -0.5900999903678894 0.304749995470047
0.8738999366760254 -0.6184999942779541 0.020049959421157837
0.8705997467041016 -0.554099977016449 0.0045500099658966064
0.3819999694824219 0.05130001902580261 0.3227500021457672
0.6515998840332031 -0.11209998279809952 0.14584997296333313
0.8322000503540039 -0.7144999802112579 0.27524998784065247
0.8104000091552734 -0.7556999623775482 0.29304996132850647
0.7836999893188477 -0.7344999611377716 0.3216499388217926
0.7951998710632324 -0.8436999619007111 0.28835001587867737
0.7883996963500977 -0.7880999743938446 0.30814996361732483
0.8492999076843262 -0.47029998898506165 0.2096499502658844
0.859799861907959 -0.46299998462200165 0.1286499798297882
0.729799747467041 -0.6806999742984772 0.4416499435901642
0.7272000312805176 -0.6517999768257141 0.41144993901252747
0.7374000549316406 -0.6805999875068665 0.3865499794483185
0.7284998893737793 -0.8088999688625336 0.5692500174045563
0.7202000617980957 -0.8364000022411346 0.5319500267505646
0.8228998184204102 -0.8648000061511993 0.23704996705055237
0.8092999458312988 -0.9032999575138092 0.17374995350837708
0.797299861907959 -0.9266999661922455 0.22075000405311584
0.7343997955322266 -0.6531999707221985 0.4973500072956085
0.7244997024536133 -0.6091999709606171 0.4987500011920929
0.8737998008728027 -0.5919999778270721 0.15954998135566711
0.8585000038146973 -0.5182999968528748 0.1920500099658966
0.7030997276306152 -0.5028999745845795 0.5402499735355377
0.7581996917724609 -0.5831999778747559 0.35044994950294495
0.7783999443054199 -0.6342999935150146 0.333749920129776
0.7519998550415039 -0.6566999852657318 0.3592499792575836
0.7368998527526855 -0.6272999942302704 0.38204994797706604
0.7258000373840332 -0.6711999773979187 0.658950001001358
0.7213997840881348 -0.7039999961853027 0.6698499619960785
0.8108000755310059 -0.6541999876499176 0.30265000462532043
0.7790999412536621 -0.9038999974727631 0.27695003151893616
0.781099796295166 -0.9442000091075897 0.2476499378681183
0.7534999847412109 -0.9603999555110931 0.2715499699115753
0.6965999603271484 -0.8768999874591827 0.5605500042438507
0.7056999206542969 -0.8447000086307526 0.6055499613285065
0.6568999290466309 -0.3325999826192856 0.5549500286579132
0.4296998977661133 -0.22539998404681683 1.042849987745285
0.8583998680114746 -0.697299987077713 0.23834994435310364
0.8494997024536133 -0.5542999804019928 -0.26795002818107605
0.842400074005127 -0.7066999971866608 -0.13715001940727234
0.6609997749328613 -0.8451999723911285 0.7393499910831451
0.6791996955871582 -0.777099996805191 0.7593499720096588
0.856299877166748 -0.7622999846935272 0.17925003170967102
0.8534998893737793 -0.7782999575138092 0.13714995980262756
0.8608999252319336 -0.671099990606308 -0.043950051069259644
0.8498001098632812 -0.7547999918460846 0.016850024461746216
0.7912998199462891 -0.9266000092029572 0.0921500027179718
0.8183999061584473 -0.8662000000476837 0.08254995942115784
0.8628997802734375 -0.6930999755859375 0.02084997296333313
0.8687996864318848 -0.6801999807357788 0.07855001091957092
0.8694000244140625 -0.6644999980926514 0.14864996075630188
0.8716998100280762 -0.6416999697685242 0.08495000004768372
0.874000072479248 -0.6051999926567078 0.09005001187324524
0.8701996803283691 -0.5089999735355377 0.10464993119239807
0.8720998764038086 -0.5637999773025513 0.06244996190071106
0.8671998977661133 -0.48969998955726624 -0.011350005865097046
0.8710999488830566 -0.6373999714851379 0.17934992909431458
0.7314000129699707 -0.803799957036972 0.4866500198841095
0.7280998229980469 -0.7930000126361847 0.4313500225543976
0.8586997985839844 -0.7252999842166901 0.20865002274513245
0.5966000556945801 -0.997899979352951 0.4039500057697296
0.5749998092651367 -1.016899973154068 0.440449982881546
0.6182999610900879 -0.9880999624729156 0.44314995408058167
0.7184996604919434 -1.0631999671459198 0.20674994587898254
0.7472996711730957 -1.0286000072956085 0.18644991517066956
0.7300996780395508 -1.0485999882221222 0.15045002102851868
0.7177996635437012 -0.735899955034256 0.6781499683856964
0.8491997718811035 -0.7653999626636505 0.22564998269081116
0.6788997650146484 -0.8634999692440033 0.6620499789714813
0.7197999954223633 -0.8415999710559845 0.4702499210834503
0.6774997711181641 -0.9249999821186066 0.48744991421699524
0.6491999626159668 -0.9565999805927277 0.5228499472141266
0.7203998565673828 -1.001399964094162 0.27594998478889465
0.7511997222900391 -0.9952000081539154 0.246849924325943
0.7418999671936035 -1.0228999555110931 0.22674992680549622
0.7462000846862793 -0.9762999713420868 -0.012850016355514526
0.4609999656677246 -1.0753999650478363 0.47384992241859436
0.7005996704101562 -0.8818999826908112 0.5067500174045563
0.7514996528625488 -0.8711999952793121 0.3215499222278595
0.768399715423584 -0.9828999936580658 0.21234992146492004
0.8501996994018555 -0.7879000008106232 0.10704997181892395
0.7562999725341797 -1.0099999606609344 0.15574994683265686
